ncols 200
nrows 82
xllcorner 340000
yllcorner 520200
cellsize 50
297.9 301.2 297.2 292.6 283.7 274.7 271.1 267 265.3 260.9 259.4 259.6 258.4 258.9 262.6 261.7 258 255.5 254.7 255 254.5 254.5 256.1 260.3 269 282.9 298 315.6 333.2 357.5 374.3 395.7 412 422.8 435.6 448.4 448 445 437.4 425.4 407.3 409.7 424.9 436.9 448.3 458.3 465.7 467.6 466.3 464.2 458.4 451.6 440.9 424.9 397.2 383 368.2 354.4 337.6 318.8 305.1 296.8 290.2 285.8 282.2 279.3 276.7 270.8 266.1 262 259.6 261.2 262.6 263.8 263.2 258.9 253.4 248.2 243.5 241.3 248.7 263.5 274.3 280.6 286.2 286.5 292 294.2 289.3 275.4 258.4 251.6 246.1 242.4 245.6 248.4 249.6 255.8 263.4 264.3 261.2 260.7 258 252.2 243.9 236.4 233 231 227.7 223.6 220.5 218.6 216.1 215.5 213.4 210.4 210.5 210.6 206.9 189.3 179.6 168.1 154.4 149.3 148.2 146.2 144.6 144.6 144.6 144.6 144.6 144.6 145.8 146.9 147.2 145.9 144.8 147.2 149.5 154.6 151.4 149.4 150.8 153 157.9 160 158.1 156.4 158 161.8 163.3 166.4 171.6 175.9 178.3 181.6 194.3 191.6 193 197.9 202.5 207.1 213 220.7 230.3 240.6 250.3 260.7 271.6 285.1 294.3 299.4 303.7 306.3 305.4 303.7 303.9 304 305 307.4 309.2 307.7 306 303 300 303.2 305.2 302.9 298.6 294.4 290.6 287.4 284.4 281.3 279.4 278.7 276.4 272.5 269.3 265.1
297 289.2 291.1 285.4 277.1 269 264.6 262.4 260.6 260.2 259.3 259 261.3 261.5 258.8 258.9 256 255.6 255.2 254.7 254.5 255.9 257.3 262.8 271.8 283.1 301.1 319.1 337.8 358.2 372.4 390.7 407.3 423.3 435.9 444.5 449.9 448.2 443.6 434.9 421 428.9 442.4 453.4 462.5 470.6 475.2 476.9 476.1 473 466.3 457.6 446.9 429.3 398.9 382.5 367.6 353.5 334.6 316.1 305.2 298.2 291.8 286.6 282.2 280 276.3 270 265.4 262 260.7 262.2 264.4 266.1 265.2 261 255.1 250 244.3 242.3 245.2 263.4 270.9 278.2 284.3 288.1 287.1 287.6 284 270.9 258.1 251.4 245.9 239.4 244.4 246.1 245.1 250.1 257.9 258.9 256.4 251.4 248.5 244.5 239.5 237.6 235.9 233.4 229.6 226.4 224.5 222.3 220.6 221.8 222 222.6 227.8 232.9 214.6 192.9 177.6 165.1 151.7 144.6 144.6 144.6 144.6 144.6 144.6 144.6 144.6 144.6 144.6 144.6 144.6 144.6 147.1 149.6 155 156.9 153.2 150.7 150 151.5 155 155.7 155.5 156.4 159.3 161.9 164.4 168.3 172.8 178.7 181 181.5 189 191.2 196 201.4 205.6 209.7 215.7 224 233.9 243.9 253.5 263.3 273.7 284.7 294.9 300.9 305.6 308 308.5 306 307.1 308.7 310.6 313.1 314.8 313.1 312 309.3 306.4 308.6 309.1 305.6 301.3 296.9 292.8 290 287.1 284.4 283.2 281.6 278.3 275.4 272.2 268.2
292.6 287.1 285.6 282.5 274.9 271.5 265.2 262.6 261.1 260.9 259.8 260.5 264.3 262.8 257.6 257.2 255.9 255.9 255.2 256.2 256 257.1 260.2 265.9 275.2 283.9 296.2 314.3 336.8 357.4 372.7 388.6 404.4 418.6 432.5 439.7 447.3 451.3 447.5 440.8 434.4 446 456.6 466.5 475.1 482.4 486.2 486.2 483.1 478.3 471.8 462 451.5 431.1 399.2 380.6 366.2 352.3 334.2 315.5 306.4 299.4 292.8 287.5 282.6 279.7 277.7 273.6 267.8 262.7 261.3 264.1 266 268.1 267.6 263.9 258.5 252.3 246.1 243.3 244.8 258.2 268.7 274.6 277.6 282 284.5 281.2 276.2 264 256.8 251 246.6 239.1 241.7 243.6 239.9 244.7 249.4 251.8 250 249.3 248.5 245.8 243.4 240.6 239.7 239.5 239.2 237.1 237.8 239 239 238.9 239.3 240.2 250.3 251.5 226.7 201.2 178.2 163.2 151.6 144.6 144.6 144.6 144.6 144.6 144.6 144.6 144.6 144.6 144.6 144.6 144.6 144.6 149 154.3 158.6 159.1 154.7 151.1 150.8 151.3 151.5 152.5 155 158.2 162.8 162.6 166.2 171 174.8 180.8 183.7 185 188.2 192.7 197.7 203 207.6 212.6 218.7 225.8 237.6 247 256.5 266.4 276.5 285.8 295.3 302.1 306.7 309.8 310.6 310.2 310.7 313.6 316.4 318.6 320.9 318.8 318.2 315.4 312.4 312.7 312.6 308.2 303.2 298.7 294.8 292 289.2 287.7 286.5 284.3 281.5 278.2 276.1 273.6
287.9 282.4 277.2 276 272.3 270.2 266 263.3 261.9 261.4 260.7 261.5 265.1 262.4 256.9 256.3 255.8 255.8 256.5 259.5 259.4 258.6 263.4 268.6 276.9 287.7 298.7 308.6 327.5 351.2 365.9 381.7 399.7 412.3 425.5 433 439.7 447.1 446.6 448.7 445.6 456.2 466.8 476.5 485.8 492.5 495.2 493.9 489.5 482.5 474.9 466.2 452.9 429.8 398.7 377.1 364.7 350.5 334.5 315.2 308.1 298.9 292.1 287.9 283.2 281.9 279.2 275.5 269.2 263.4 263.5 266.5 269.2 271.4 272.3 266.9 261 254.6 248.3 244.6 247.7 253.1 262 269.8 273.2 273.8 275.6 274.2 269.7 263.8 256 250.3 246.4 239.8 236.7 238.4 233 236.5 244.2 247.4 249.4 251.5 254.3 253.6 249.9 248.7 250 254.6 257.3 257 257.7 263.3 265.3 264.7 260.3 256 262.6 258.8 237.1 203.8 181.9 160.8 146.7 144.6 144.6 144.6 144.6 144.6 144.6 144.6 144.6 144.6 144.6 144.6 144.6 144.6 149.8 157.1 160.6 160.4 155.7 151.4 151.7 152.9 153.4 153.2 156.7 162.2 164.7 163.1 167.5 172.8 177.2 182.5 186.4 187.4 191 195.2 199.5 204.4 209.7 215.5 222.4 230.7 240.7 249.9 259.7 269.8 279.3 286.8 296.5 303.2 307.8 311.6 313.4 314.4 315.5 318 321.5 324.7 326.9 325.6 324.3 320.8 316.9 316.5 314.2 310.5 304.9 300.2 296.8 293.6 290.8 290.3 289.1 287 284.6 280.7 278.6 276.8
282.7 277.3 272.6 270.4 269.2 267.1 264.9 263.9 263 264.4 264.3 264.1 264.8 261.3 256.8 256.1 255.9 255.9 257.6 263.3 261.5 262.9 267.6 272.2 279.6 290.7 299.8 305.1 326.8 349.3 365.7 377.4 391.2 404.1 415.9 424.5 429 435.1 440.4 450.8 454.7 462.6 474 485 494 500.1 501.7 498.8 492.6 485.1 476.6 468 452.3 431 401.1 374.8 360.8 348.3 330.3 315.4 305 297.7 291.9 287.5 284.2 283.7 281.4 276.4 270.5 264.1 265.4 269 271.4 273.5 276.2 272.4 262.3 256.5 251 246.6 248.4 251.7 259.6 268.4 270.5 271.9 274.3 273.3 270.2 264.9 256.6 249.7 244.6 240.7 230.2 226.1 226.4 229.7 238.7 246.3 250.3 254.7 260 262.4 261.1 259.9 261.9 268.3 273.5 276.7 277.3 279.9 282.5 283.1 273.6 261.9 260.3 251.4 218.6 194.3 173.1 156.8 144.6 144.6 144.6 144.6 144.6 144.6 144.6 144.6 144.6 144.6 144.6 144.6 144.6 144.6 152.4 158.3 160.7 160.3 155.8 152.9 152.7 152.6 153.5 154.4 158.4 164.1 164.6 165.4 170.8 175.3 179.2 184.1 189.3 189.8 192.3 196.2 200.6 205.8 211.2 218 225.6 235 242.9 253.8 263 272.3 281.2 288.3 296.5 303.7 308.8 313 316.6 318 320.1 322.3 326.9 330.5 332.2 331.6 329.6 325.5 321.2 318.7 316.5 313.2 307.2 302.4 299.7 296.6 293.6 293 292.4 289.7 287.1 283.7 280.6 278.2
276.9 273 270.5 269.4 267.7 265.7 267.7 268.1 269.3 270.2 267.7 265.6 264.4 260.6 256.6 256.6 256 256.2 260.6 265.8 264.9 266 270 274.5 281.8 292.5 302.2 306.1 326.5 346.2 363.7 376.5 385.3 399.5 408.8 416.5 422.7 428.8 435.7 445.6 454.3 461.2 474.7 487.2 497.5 504.2 504.6 500.4 495.2 486.5 478.9 468.1 452.5 432.9 404.2 375.5 360.1 346.1 323 312.7 302.6 297 292 287.8 284.9 285.7 282.8 278 272.8 266 267.3 271.1 273.2 275.2 279.1 278 267.3 258.7 253.4 247.7 247.5 250.2 254.7 264.3 269.6 272.3 273.5 272 268.8 265.5 259.1 250.6 243.4 239.2 231.9 226.5 220.2 225.2 233.7 243.9 252.7 258.2 264 269.7 272.5 270.4 272.9 277.5 283.9 287.8 287.7 287.6 286.7 282.7 267.6 252.6 234 223 204.3 180.2 158.2 145.6 144.6 144.6 144.6 144.6 144.6 144.6 144.6 144.6 144.6 144.6 144.6 144.6 144.6 144.6 153.2 158 159.3 157.4 155.2 154.2 153.6 153 154.3 155.7 159.7 164 165.1 166.8 173.3 177.5 180.7 185.6 191.1 194.1 193.8 198.3 203 207.5 214.3 221.6 231.1 240 248.2 256.7 265.8 274.1 282.2 289.9 296.7 303.9 310 314.9 320 322.7 324.9 328.7 331 335.5 337.3 335.8 334.1 328.8 325.2 322 320.1 316.5 310.8 305.9 302.6 299.5 296.9 296.8 295.5 292.4 289.7 286.4 282.3 279.5
277.4 277.9 277 275.1 272.9 273.8 275.6 274.9 275.9 273.4 269.7 264.8 261 258 256.4 257.1 256.5 256.6 263.8 268.2 265.7 267.4 271.3 276.3 283.9 293.2 302.4 308.5 319.8 339.9 352.8 370.3 380.7 387.9 398.7 408.2 416.1 421.3 429.3 438.5 448.4 456.3 469.8 483.2 494.8 502.1 504 500.4 495.3 487.5 479.2 467.2 449.6 429.4 402.4 378.6 356.1 342.9 320.8 308.4 301.5 295.9 291.4 287.5 285.8 286.8 284.5 278.9 272.8 267.5 268.5 272 274.1 276.8 282.9 283.5 275.3 262.1 254.3 249.5 246.4 248.5 250.3 257.9 267.2 273.3 274.6 272.6 268.6 265.1 260.1 248.6 238.3 236.2 230.6 224.9 219.6 218.9 227.6 237.6 251.1 259.9 267.2 273.6 278.7 278.4 278.5 281.4 286.4 289.5 287.5 282.5 275.4 262.5 248 229.6 210.9 198.4 180.9 157.5 145 144.6 144.6 144.6 144.6 144.6 144.6 144.6 144.6 144.6 144.6 144.6 144.6 144.6 144.6 144.6 152.4 156.7 157.4 154.8 155.3 155.6 153.9 153.3 155.4 158.5 159.8 163.7 165.6 168.7 175.1 179.4 182.2 187 192.6 196.4 198.8 200.3 205.2 210.9 218.4 225.9 235.3 244.4 252.9 261.2 268.4 276.2 285 292.1 299.1 305.8 311.7 317.2 322.4 327.4 331.4 334.9 334.6 338.6 341.6 339.9 336.5 331 327.6 325.1 322.3 319.6 314.6 309.1 305.3 302.3 300.1 299 297.9 295 292.2 288.1 283.4 279.4
286.7 287.1 282.5 282.9 282 282.9 282.4 281 277.7 272.3 267.6 262 258.6 256.9 256.6 257.2 256.4 257.6 265.8 267.9 266.9 267.1 270.6 275.7 281.6 288.7 297.8 306.8 313.4 329.2 341.7 358.5 368.6 377.9 385 394.7 404.5 412.9 419.5 426 437.6 446.1 461.5 474.7 485 492.9 497.4 496.6 493 485.6 476.1 460.2 442.6 423.4 397.5 375.4 352.6 338.5 320.1 306.6 299.6 294.2 289.7 287.2 286.6 287.6 284.2 278 272 268 268.7 272.5 276 279.7 285.9 287.3 281.6 267.4 258.1 251.3 247.4 246.6 247.2 252.7 263.7 271.9 273.9 271.5 266.3 261.4 254.7 244.4 237 234 229.5 222.3 216.9 211.7 219.4 229.2 242.7 256.3 265.5 272.8 277.3 277 277 276.2 276.3 274.1 270.3 261.8 251.4 236.8 222.2 205.2 186.9 170 154 144.6 144.6 144.6 144.6 144.6 144.6 144.6 144.6 144.6 144.6 144.6 144.6 144.6 144.6 144.6 144.6 144.8 153.2 156.9 155.1 153.5 155.4 156.7 155.1 155.6 156.3 158 161.2 164.4 167 169.6 175.9 180.7 183.8 187.9 193.7 197.3 200 203.4 208.3 214.1 221.2 229.7 241.5 250 257.6 265.4 272.9 279.6 287.3 294.4 300.6 306.7 312.7 318.4 324.1 332.9 338.8 340.1 338.8 342.2 344.9 342.8 339.1 334.2 330.3 328 323.3 322.2 317.7 312.1 307.9 305.3 302.7 300.9 299.1 296 293.3 288.9 284.8 280
293.1 288.9 286.2 285.7 287.8 287.8 285.3 283.1 276.6 269.7 264.7 260.4 256.9 256.7 256.8 257.6 256.5 259 267.8 268.3 267.8 267.3 268.5 271.8 275.8 281.9 292.6 302.4 306.9 314.2 327.2 334.8 345.6 359.1 369.4 378.6 387.8 398.2 408.6 414.8 424.2 433.8 447.3 462.9 474.2 481.8 485.2 485.3 482.6 476.8 465 448.8 432.1 416.7 391.7 370.1 348 332.5 315 305.5 297.8 292.6 288.2 286.7 285.9 284.6 281.1 276.1 271.2 267.6 269.7 275.1 276.5 280.1 286.1 286.5 281.5 271.1 263.6 253.2 249.1 247.3 246.7 249.1 257.1 266.7 270.9 267.9 254.6 243.8 238.5 235.4 231.7 227.8 225.5 218.7 210.6 203.8 208.4 217.2 228.5 240.6 250.9 256.9 258.6 259.8 257.3 253.4 249.3 246.2 241.2 232.5 221.3 208.2 195.4 179.1 163.4 151.7 144.6 144.6 144.6 144.6 144.6 144.6 144.6 144.6 144.6 144.6 144.6 144.6 144.6 144.6 144.6 144.8 146.6 148.5 151.1 153.9 152.5 152.8 154.1 155.7 156 157.8 158.7 160.8 163.7 166.5 169 170.6 173.4 180.1 185 189 193.7 197.4 202.3 205.4 210.7 216.7 225.6 237.5 249.3 256.2 261.3 268.8 277 284.2 290.6 296.3 302.3 308.4 314.1 320.8 328.3 340.1 343.3 343.1 340.4 343.7 346.9 345 341.2 336.4 332.7 330.2 326.8 324.4 320 315.4 311.2 307.5 304.5 302.3 299.8 296.2 293.8 290.4 285.9 282.2
294 286.5 287.8 286.6 286.6 283.8 282.2 279.9 273 266.8 261.5 258.3 257.1 257.1 257 258 256.7 260.2 266.4 268.5 266.9 267.2 268.2 269.8 271.6 273.4 276.7 283.6 288.3 295.1 301.4 305.5 316.1 335.4 351.6 360.5 370 380.7 391.3 402.2 412.5 422.7 433.5 446.6 459 467.2 470.9 471.4 467.2 459.6 448.8 435.8 421.8 403.8 382.1 362.5 340.8 327.2 313.4 303.6 296.1 291.5 287.2 285.4 284.3 282.3 279.1 274.2 270 268.2 270 275.7 276.6 278.2 281.9 279.7 274.9 270.6 267.6 256.4 250.9 248.3 246.2 244.9 247.9 255.6 258.2 252 242.5 235.7 227.4 223.6 221.2 215.5 212.7 208.3 204.3 199.7 194.9 201.3 206.6 213.8 222.1 228.5 229.9 229.9 226.5 222.7 218.6 215.4 210.9 202.4 193.2 182.9 170.1 159.2 151.2 146.6 144.6 144.6 144.6 144.6 144.6 144.6 144.6 144.6 144.6 144.6 144.6 144.6 144.6 144.6 144.6 145 147.5 148 149 150.8 151.7 153.1 154.4 155.8 157.6 159.4 161.5 164 166.8 169.7 172.3 173 174.9 180.8 185.8 190 194.3 199 203.2 208.2 213.2 220.1 231.6 244.8 255.7 262.8 267.5 273.6 281.6 288.4 293.6 298 303.1 309.6 316.4 323.6 332.5 344.7 346.4 344.6 341.4 343.5 347.8 346.6 343.1 338.4 335.1 332.2 329.1 326.4 322.8 318.3 313.5 309.2 306.3 303.4 300.1 296.3 293.5 291 287.4 284.4
292.9 286.8 285.9 283.2 280.8 278 275.5 272.2 267.7 262.7 259.3 258.1 257.7 257.5 257.3 258.4 257.3 260.9 267.1 268.2 266.4 267 268.3 270.2 272.1 274.2 276.3 278.2 280.5 284.1 291.4 298.3 305.9 315.5 327.3 337.3 348.2 360.9 374 386.6 396.8 407.8 419.8 430.3 442.1 448.9 452.4 452.1 447.9 440.4 431 419.1 406.4 389 370 349.4 335.4 322.9 309.7 303.2 295.4 289.8 285.3 283.7 282.1 278.6 274.9 272.1 269 267.5 267.3 270.8 272.6 271.7 270.9 269 267.8 266.3 263.6 257.5 253.8 249.6 246.3 240.1 236.8 238.7 238.7 238.3 236 231.4 226.1 221.4 216.7 211.6 208.3 205 200.9 196.2 193.4 191.3 190.8 193 197 200.5 201.3 200.6 196.1 194.6 191.5 188 184.5 179.2 174.9 169 161.6 152.1 148.5 144.6 144.6 144.6 144.6 144.6 144.6 144.6 144.6 144.6 144.6 144.6 144.6 144.6 144.6 144.6 144.6 146.5 147.6 148.7 149.4 150.6 152 153.4 155 156.8 158.7 160.7 162.4 165.9 169.5 172.9 175.8 175.8 177.1 180.8 186 191.3 196.1 200.7 205.8 211.6 216.6 224.5 238.6 251.2 260.3 267.4 273.3 279 285.5 291.7 295.8 299.7 304.6 311.8 319.3 331.2 340.3 347.2 348.1 345.8 342.7 342.9 347 347.7 344.6 340.3 337.1 333.8 330.8 328.2 324.4 319.9 314.7 310.7 307.8 304.8 301.7 298.3 293.9 290.9 286.3 283.2
290.9 287.6 282.6 278.1 275.1 272.3 269.7 266.1 262.7 260 259 258.5 258.1 257.8 259.2 258.5 258.1 263 270.1 268.4 266.1 266.9 268.4 271.5 273.7 276.7 280.6 284.4 288.2 290.8 289.3 291.3 298.7 306.7 314.6 321.7 328.7 335.5 348 374 384.2 395.6 405.6 417.2 428.1 431.7 430.7 429.3 423.5 415.6 405 393.6 383.2 369.6 353.3 335.2 323.5 313.7 302.9 299.5 294.5 287.6 282.3 280.1 277.8 275.5 270.8 269.1 266.8 264.9 265.9 265 265.6 266.1 266 264.4 263.1 260.3 257.5 256.4 252.6 247.3 239.4 233.7 230.4 229 229.3 230.1 228.6 227.1 224.2 221.4 216.9 211.4 207.8 204.2 198.6 194.3 191.6 189.3 187.1 188 187.6 183.3 183 181.5 181.4 179.5 174.9 174.3 170.9 168 165 162.1 156.8 150.3 146.4 144.6 144.6 144.6 144.6 144.6 144.6 144.6 144.6 144.6 144.6 144.6 144.6 144.6 144.6 144.6 145.4 147.1 148.1 149.2 148.9 151.1 152.6 154 155.9 157.7 159.5 161.7 163.8 167.4 171.2 175 178.3 179.3 180.5 184.4 189 193.6 197 202.3 208.8 213.6 219.4 228.5 243.4 255.7 265 271.8 277.8 282.6 289.3 295.2 299.1 302.4 308.4 315.5 323.3 341.1 348.9 349.6 349.4 346.7 343.2 342.8 345.6 347.3 345.5 342.1 338.6 335.3 332.2 328.9 325.5 320.2 315.4 311.6 308.6 305.8 302.8 299.9 294.9 291.7 286.5 284.6
291.2 285.4 279.5 274.8 270.3 267.2 264.3 262.7 260.7 259.9 259.4 259.1 261.1 265.1 264.9 260.5 258.4 264.1 270.9 269 266.3 268.2 270.3 273.2 277.5 280.4 283.5 288.2 291.7 295.7 298.7 298 297.1 307.7 315.3 322 327.1 334.3 342.3 353.7 372.8 386.4 393.9 404.3 410.4 412 410.7 407.8 399.2 388.2 372.4 354.3 353.1 340.9 329.2 319.8 306.9 301 297.1 294.1 290.7 285.3 280.2 276.4 272.3 269.5 264.6 261.4 261.9 261.1 260.1 260.6 261.9 261.1 258.1 254.4 250.9 248 248.4 247.2 244.7 239.2 230.8 226.6 224.9 224.2 224.4 224.6 224.9 223.9 222.2 219.9 216.1 210.8 206.1 202.6 197.2 193 190.5 187.3 185.1 184 182.6 180.2 177.5 173.2 167.3 167.6 166.2 164.3 163.3 161.9 159.5 155.9 153.7 149.9 144.8 144.6 144.6 144.6 144.6 144.6 144.6 144.6 144.6 144.6 144.6 144.6 144.6 144.6 144.6 144.6 146.2 147.4 148.5 149.6 149.5 151.1 153.1 154.7 157 158.6 160.4 162.4 164.5 167.6 172.5 175.9 179.3 181.1 182.5 186.2 190 195 199 205.3 211.8 215.4 220.2 237.9 249.7 260.1 269.8 276.3 281.3 285.4 292.9 298.7 302.6 305.7 312.1 320.8 329.2 347.7 353.2 352.4 350.5 347.9 344.8 342.9 344.2 346.7 345.9 343.3 340 336.7 333.1 329.7 325.9 321 316.2 312.5 309.4 306.4 303.4 299.1 294.6 291 291.7 286.1
287.9 283.8 277.4 272 267 263.8 263.3 261.2 260.1 261.4 263 265.1 267.7 270.6 268.1 263.1 259.6 263.5 267.5 266 266.2 268.3 272 275.9 277.6 281.3 285.3 290.1 295.1 298.2 302.7 307.3 305.7 305.8 314.3 320.9 327.6 335 344.1 358 370.3 377.6 383.2 389.8 392.9 394.7 393.8 387.4 379.6 362.7 350.5 339.2 330.9 318.6 309.4 300.2 295.2 293.5 291.9 290.1 286.9 283.5 279.5 275.4 271.1 265.3 260.4 256.1 255.4 256.1 253.1 247.9 247.1 248.6 244.9 245.6 244.1 234.3 230.3 228.4 228.6 223.9 220.7 219.4 219.8 220.5 220.4 221 221.1 221 219.9 217.6 214 209.4 203.9 200.5 196.4 196 194.4 189.4 186.4 180.7 178.7 176.8 175.7 176.4 174.8 167.5 160.7 159.6 158.2 156.8 155.6 151.6 150.5 144.6 144.6 144.6 144.6 144.6 144.6 144.6 144.6 144.6 144.6 144.6 144.6 144.6 144.6 144.6 144.6 144.6 145.5 147.7 149 150 149.6 152.1 153.3 155.4 157.5 159.3 161.5 164.9 167.3 166 170.4 176.9 180 182.5 183.9 187.5 193 197.1 201.3 207 213.7 216.7 221.4 240.1 254.3 265.5 274.6 280.3 285.2 288.9 297.3 302.5 306.9 310.8 318.2 326.8 334.6 347.5 356.6 355.1 352.8 349.4 346.4 343.9 343.1 346.2 346.5 344.4 341.4 337.9 333.9 330.5 326.6 321.8 317.6 313.7 309.9 306.7 302.9 298.7 294.3 295.8 293.1 286.5
282.4 279.2 274 267.8 264.9 264.7 262.4 262.5 265.2 268.2 271.1 268.7 272.9 273.4 270.1 264.6 260.8 261.7 263.8 264.6 266.5 269.2 273.1 276.8 280.2 283.1 286.9 290.9 296.3 301.4 305.9 310.3 314.4 309.7 311 318.9 324.9 336.2 347.7 359.1 366.7 370.9 376.5 382.2 384.3 388.1 387.4 381.1 373.4 362 351.1 334.3 322.8 314.7 306.3 297 293.4 291.4 290.4 288.9 285.1 282.7 281.3 275.4 270.6 266 260.1 254.4 247.9 247.2 243.1 238.1 234.9 234.5 234.9 233.1 229.4 228.1 225.5 221.8 218.8 216.7 214.9 214.2 216.2 216.7 216.6 217.7 216.5 217 216.2 213.9 210.1 207.7 201.3 197.8 195.7 197.6 194.8 190.9 189.6 185.1 180.7 180.6 180.9 179.2 174.8 169.4 165.8 158.7 154.3 152.9 151.4 149.1 146.6 144.6 144.6 144.6 144.6 144.6 144.6 144.6 144.6 144.6 144.6 144.6 144.6 144.6 144.6 144.6 144.6 144.6 145.8 147.9 148.6 149.7 150.7 152 153.9 156.5 158.8 162.6 166.1 168.2 170.6 176.2 173.4 173.3 181.2 184.4 186.8 190.2 195.3 199.4 203.9 210.7 215.8 218.9 227.1 243.1 257.8 270.7 278.8 284.7 289.5 292.8 301.8 307.1 312.1 316.8 324 333 338.9 347.7 358.6 357.6 355.3 351.2 347.6 344.8 342.2 345.9 347.4 345.5 342.5 339.4 335.4 331.6 327.2 323 319.2 314.9 311.1 307.1 302.8 298.5 295.5 296.6 293.7 286.9
277.8 274.4 267.5 266.5 268.5 268.3 268.2 270 272.4 273 274.9 268.9 273.7 273.9 269.2 262.8 260.6 261.6 262.6 264.1 267.4 270.6 275.9 279.4 283.6 288.7 292.4 296.9 300.9 305.4 309.2 313 317.2 320.2 316.9 321.9 328.7 339.3 345.8 352.2 357.3 361.8 367 373.4 376.8 381.6 382.4 382.2 379.1 370 358.5 341.8 320.3 309.2 302.7 298 295.2 291.9 291.6 290.5 285.7 283.6 281.5 275.1 269.4 264.9 259.2 252.4 247.1 242.1 239 236 233.7 231.8 231.9 229.2 230 229 223.5 220.3 216 214.1 211.4 210 211.8 212.7 212.6 214.2 213.2 213 211.9 209.9 206.2 204.7 199.4 196.7 198.2 197.4 193 191.5 190.1 183.4 179.9 178.3 176.4 175.4 171.7 166.5 162.7 162.2 156.1 150.4 148.6 145.5 144.6 144.6 144.6 144.6 144.6 144.6 144.6 144.6 144.6 144.6 144.6 144.6 144.6 144.6 144.6 144.6 144.6 144.6 144.6 147.8 149.4 150.6 151.6 153 155 157.7 160.2 165.4 171.4 174.2 171.4 179.6 178.6 177.4 180.4 185.5 189.5 192.7 195.9 201.7 205.8 213.3 217.7 223.6 233.1 247.2 261.9 274 282.3 288.7 293.5 297.8 306.4 312.2 317.1 323.1 328.9 337.6 342.2 348.8 359.6 359.7 357.8 353.9 349.7 347.1 343.6 346.4 348.2 346.6 343.8 340.7 336.9 331.9 328.1 324.4 320.4 315.9 311.6 307.6 303.5 299.5 297.6 296.7 293.7 286.7
271.7 269.7 273.8 275.5 274.7 276 276.7 276 275.9 277.2 275.3 268.8 270.2 269.7 264.7 260.4 260.3 261.3 262.8 264.7 267.7 271.5 277.9 283.4 288.7 293.4 296.9 301.4 305.6 309.9 313.6 316.7 319.9 322.6 324.5 324.9 325.8 332.2 335.5 342.2 346.8 353.6 361 369.2 373.1 376.5 380.6 385.8 387.5 389.7 374.5 351.7 332.4 316.9 309.7 302.9 298.9 295.4 295.3 292.8 286.5 284.9 281.3 273.9 267.8 262.8 258.3 251.4 247.8 243.7 238.9 235.5 234.2 233.3 234.8 233 235.1 235 232.1 227.9 223.6 217.8 211.4 205.5 205.8 208.4 208.4 209.3 209.2 208.4 208.5 205.7 201.5 199.5 196.1 197.4 198.5 195.6 192.1 191.2 187.4 179.4 176.1 174.7 172.2 170.6 166.7 163.5 161.7 160.7 152.4 145.5 144.6 144.6 144.6 144.6 144.6 144.6 144.6 144.6 144.6 144.6 144.6 144.6 144.6 144.6 144.6 144.6 144.6 144.6 145.8 145.8 147 148 150 151.5 152.6 154.6 155.5 155.1 159.1 169.9 174.8 176.4 178.4 182 184.5 182.9 181.1 187.2 192 195.5 199.3 204 209.3 214.9 220.4 227.1 235.7 246.8 262.4 278.5 285.9 292.9 297.2 300.6 310.6 317.5 322.5 328 332.9 341.6 345.2 351 360.8 361.9 360.3 356.6 352.5 349.3 347 347.5 349.3 347.5 344.9 342.1 337.9 333.2 329.1 325.3 321.3 316.6 312.2 308.1 304 300.2 297.9 296.1 292.7 286.8
269 276.2 281 280.3 279.8 281 280.4 278.5 277.1 279.4 276.1 266.8 263.4 263.2 260.8 260.3 260.3 261.6 262.8 265.3 267.5 272.7 280.1 282.7 292.2 298.7 301.3 304.9 309.1 313.4 316.9 320.2 323.3 326.4 328.8 330.7 331.7 336.6 341.5 345.6 350 353.4 358.4 364.4 369.4 373.8 380 387.9 397.9 400.8 394.2 376.5 349.8 330.6 319.6 309.5 302.2 300.5 298 293.7 288 286.3 280 272.2 265.7 260.5 257 252.4 248.2 242.9 238.2 235.1 234.1 235.4 235.4 235.6 237 235.5 231.8 227.3 222.1 217.7 212.8 204.4 199 203.6 204.6 204.6 204.9 203.4 202.8 202.2 198 194.9 195.9 198.5 197.6 193.8 191.5 189.3 184.3 178.7 171.8 170 168.1 165.7 161.7 158.1 158.2 156.9 144.6 144.6 144.6 144.6 144.6 144.6 144.6 144.6 144.6 144.6 144.6 144.6 144.6 144.6 144.6 144.6 144.6 144.6 145.9 147.3 146.7 146.7 147.3 148.1 149.9 151.5 153.5 155.6 157.2 158.9 164.5 171.4 177.1 178 181.9 184.8 187.2 188.6 181.9 188.7 194 197.9 201.7 206.3 212.6 218.2 224.9 233 241.9 255 270.1 282.2 290 297.4 300.7 304.1 314.7 322.5 327.8 332.9 337 343.9 347.8 353 361.6 364.3 362.3 359.1 355.2 352.2 349.2 348.5 349.4 348.3 345.7 342.6 338.6 334.4 330 326.3 322.1 317.3 312.7 308.5 304 300.4 298.4 296.5 293.2 289.6
271.2 275.5 279.5 280.8 283 283.5 280.2 279.2 280 281 277 267.9 263.1 260.7 260.2 260.3 260.4 261.1 263.8 268.9 273.4 278.5 284 290.7 295.9 300.4 306.6 309.4 314 318.6 320.1 323.4 326.7 330 332.5 334.6 336.8 336.3 343.8 347.5 352.9 357.6 360.8 362.3 366.8 373.4 383.2 395 408 410.7 406.9 391.3 367.6 348.4 333.7 318.7 310.4 307.2 302.1 295.1 288.4 284.7 277.7 269.1 263.3 258.6 255.7 252.4 247.8 242.7 238.6 235.5 236 237.1 236.8 237.5 236.4 233.8 230.4 225.8 220.3 216 212.1 205.4 195 198.3 200.6 200.9 200.7 199.7 197.7 195.3 194.1 194.9 196.9 199.3 196.3 193 191.1 187.3 182.1 177.3 171 165.2 163.3 161.2 157.1 154.3 154.1 145.9 144.6 144.6 144.6 144.6 144.6 144.6 144.6 144.6 144.6 144.6 144.6 144.6 144.6 144.6 144.6 144.6 144.6 145.1 150.1 147.5 146.8 147.1 148 148.4 150.5 152.6 154.7 156.6 158.1 163.1 167.3 173.6 179.1 181 185.1 187.7 190.1 191.7 185.9 190.1 195.8 200 204 210.4 215.8 221.7 228.7 236.5 245.1 258.1 273.4 285.9 293.6 300.9 303.7 308.9 320.1 327.2 333.1 337.6 340.7 346.1 350 355.3 365.6 366.2 363.6 361.9 357.9 354.2 351.9 350.3 349.1 348.6 346.4 343.2 339 333.3 330 326.7 322.6 317.4 312.9 308.6 304 300.8 298.7 296.8 294.5 291.3
272.3 271.5 273.9 276.9 281.4 280.6 278.1 280.7 285.3 285.7 279 271.2 262.8 260.4 260.3 260.4 260.5 260.8 264.3 270.6 276.4 282.1 288.8 295 300.9 305.5 306.8 313.9 318.8 322.2 324 326.4 329.6 333 335.3 338.6 341.3 343.8 344.7 350.3 355.4 360.7 364.8 364.7 367.1 374 387 400.4 412.9 415.7 415.1 406.4 391.7 372.3 351.1 340 324.3 314.2 304 294.3 285.9 280.6 273.8 265.7 260.4 257 255.5 251.4 246.3 242 237.9 236.4 237.3 238.1 238.1 236.8 234.4 232.2 228.8 224.8 218.7 214.5 210.4 203.7 197.5 193.7 196.4 196.2 195.5 194.5 193.8 192.2 193 195.2 197.6 197.3 193.7 190.6 188.6 184.5 179.4 174.3 167 159.4 158.5 156.7 154.2 150.9 144.8 144.6 144.6 144.6 144.6 144.6 144.6 144.6 144.6 144.6 144.6 144.6 144.6 144.6 144.6 144.6 144.6 144.6 144.6 149.6 149.4 147 146.9 147.3 148.4 149.8 151.3 153.9 156.4 159.1 160.5 165.5 171 175.5 181.1 184.7 188.1 190.8 193 194.7 194.1 189.5 195.7 201.8 206.5 213 218.1 224.3 233.2 240.5 248 259.6 275.1 288.2 297.5 305.2 306.8 314.7 325 332.1 338.3 340.8 343.6 348.5 352.5 358.2 368.9 369.2 366.3 364.7 361 357.5 354.1 352.1 350.4 348.6 346.8 343.6 339.3 334 329.7 323.4 317.5 315.1 312.8 308.2 304.1 301.1 298.4 294.9 290.8 289.2
277.8 274.2 273.4 274.7 276.9 279.6 283.2 287.4 289.9 289.1 281.5 274.7 266.6 262.1 261.4 260.9 260.8 261.6 263.9 269.9 279.2 286.7 292.5 299.9 305.5 308.8 314.3 316.1 322.9 323.9 326.8 329.4 332.6 336 339.7 342.4 345.4 348.8 351.3 351.8 357.1 363.2 366.2 367.2 370.8 376.4 387.9 402.3 411.8 414.8 410.4 409.8 395.8 391.5 373.7 358.1 341.9 326 309.5 292.4 281.2 274 268.6 262.9 258.6 257.8 256 251.3 246 241.6 237.9 237.3 238.3 237.8 237.1 235 232.7 230.4 226.9 221.6 216.8 212.7 208.8 200.1 191.8 187.5 191.4 192.4 190.6 190.6 190 189.2 191.6 194.6 196.4 194.4 191.6 188.8 185 182.1 177.4 171.3 165.5 157.1 152.4 150.5 147.9 144.6 144.6 144.6 144.6 144.6 144.6 144.6 144.6 144.6 144.6 144.6 144.6 144.6 144.6 144.6 144.6 144.6 144.6 144.6 144.6 149 147.7 147.3 147.3 147.5 148.1 149.7 152.1 156.4 159.5 163.2 164.2 164.9 170.8 177.4 181.7 187.2 190.8 193.5 196.2 197.4 198.8 199.4 195.9 202.4 209.1 214.8 220.1 227.5 236.6 244 249.5 262 277.1 290.2 300.9 309.4 311.9 319.8 330.9 336.4 342.8 343.8 345.9 350.8 354.6 360.3 371.4 372.2 369.3 368.2 365 361.1 357.1 353.9 350.8 348.4 346.3 342.1 337.9 333.7 326.3 320.8 318 315.5 312.2 308 304.6 301.5 298 293.9 289.5 284.5
279.7 280.1 281.3 281.9 283.5 285.6 290.3 293.3 294.8 291.7 285.1 276.2 268.4 265.3 261.4 261 261.1 262.9 268 274.5 282.6 291.8 298.8 306.4 313.7 315.2 320.5 323.3 325 326.9 329.5 332.4 335.5 339.6 344.5 348.7 351.9 355.3 356.3 355.7 358.3 362.5 366.4 370.6 376.6 381.3 387.6 395.9 403.4 409.5 405.8 402.4 396.6 393.3 386.8 372.2 357.9 342.9 315.7 290.6 274.7 268.1 263.1 260 258.8 258 255.6 250.6 244.7 240.1 236.8 235.8 236.2 236.7 236.4 233.6 230.6 228 225.3 219.4 215 211 206.6 197.6 196.5 190.9 186.1 186.7 184.8 184.9 184.3 187.1 188.6 192.3 193.2 191.4 188.5 185 182.5 178.4 174.3 169.4 161.7 156.3 152.3 146.9 144.6 144.6 144.6 144.6 144.6 144.6 144.6 144.6 144.6 144.6 144.6 144.6 144.6 144.6 144.6 144.6 144.6 144.6 144.6 144.6 144.6 149.5 148.8 147.8 147.7 147.8 149.2 151.2 154.7 160.6 165.2 169.9 170.8 166.7 175.1 180.5 184.6 189.3 192.4 195.5 198.5 200.4 202.4 204.9 195 202.4 211.2 217.5 223.9 229.6 239 245.9 252.1 263.3 277.7 291.3 302.8 313.3 316.5 323 334.3 339.7 345.4 345.9 347.9 352.5 356.4 362 372.4 374.2 372.3 371.7 367.8 364.2 360.4 356.5 352.8 349.5 346.4 342.8 338.4 334 326.2 324.1 321.3 316.7 312.3 308.5 305.4 302.3 298.1 292.5 288.3 283.3
280.8 282.9 286.2 286.9 286.8 288.4 292.6 295.8 296.8 292.5 285.7 276 268.9 264.7 261.3 261.2 261.4 266.7 273.8 281.1 288.8 297.7 303.7 311 319.5 323.8 326 327.4 328.4 331.4 333.2 335.8 338.9 343.3 347.7 352.5 356.2 358.6 359.8 359.5 359.3 363.2 368.2 372 381 388.2 394.1 394.6 398.2 399.2 399.3 395.8 393.5 384.6 385.1 380.8 369.3 354.6 327.8 286.1 266.7 262.2 259.2 258 258.6 257.8 254.9 250.1 243.3 238.7 234.9 233 232.6 234.6 235.1 232 228.2 224.6 221.7 217.5 211.2 207.5 203.3 199.7 195.5 191.5 186.7 183.3 179.2 179.9 182.1 184.7 186.3 188.6 189.4 188.4 185.9 183 176.9 174.2 171.6 166.4 157.8 156.6 152.7 147 144.6 144.6 144.6 144.6 144.6 144.6 144.6 144.6 144.6 144.6 144.6 144.6 144.6 144.6 144.6 144.6 144.6 144.6 144.6 144.6 144.6 149.8 148.5 148.6 148.7 148.9 151.6 157.6 163.5 166.7 171.8 176.3 176.2 176.5 176.1 182.5 187.7 192.3 195 197.7 201 203.3 206.3 209 209.6 201.8 211.8 219.2 225.7 232.2 238.9 245.6 253.7 264.2 277.7 291 302.8 316.9 321.7 325.9 333.8 341.7 347.2 347.7 349.2 353.6 357.3 362.8 372.2 375.3 374.4 372.7 368.7 365 361.4 357.6 353.7 350.4 346.6 342.9 337.9 333.6 327.6 325.1 322.2 317.5 313.9 310.3 307.1 304.1 300.3 295.5 290 285.3
280.6 283.5 286.7 287.7 287.4 289.5 293.2 296.2 295.9 291.1 283.8 274.7 268.5 264.1 261.6 261.6 262.2 265.6 275.4 283.8 290.9 299.4 306.2 314.9 323.1 328.4 329.1 329.6 332 333.9 336.6 339.6 343.7 350.3 351.9 356.4 360.6 362.1 363 363 361.5 365.9 372.2 375.4 385.1 394.2 398.2 397.9 398.7 397.5 394.7 384.4 385.4 378 372 367.8 369.3 351.7 313.2 276.3 258.1 255.6 256.3 257.2 258.2 256.7 253.4 248.6 241.8 237.6 233.9 231.4 230.2 227.6 230.9 225.4 220.5 218.4 216.1 210.3 206.5 203.8 204 199.1 195.4 191.8 187.6 184 179.1 170.8 178.3 181.6 183.5 185.9 186.2 184.2 181.3 177.5 173.2 168.6 164.9 159.9 154.9 155.2 152.9 148.5 144.6 144.6 144.6 144.6 144.6 144.6 144.6 144.6 144.6 144.6 144.6 144.6 144.6 144.6 144.6 144.6 144.6 144.6 144.6 144.6 145.5 148.6 148.9 149.4 149.7 153.4 157.7 164.3 168.3 172.1 176.1 179.3 183.7 183.1 180.4 184.4 190.6 195.4 198.3 200.5 203.8 206.4 209.5 212.5 213.3 215.5 207.2 213.3 225.2 233.4 241.6 249.1 255.5 264.7 275.7 288.9 300.4 316.9 326.1 329.7 333.7 343.1 349.7 349.9 351.2 354.6 357.4 363 371.9 373.3 374.9 372.9 369.2 366.1 362.1 358.2 354.6 350.7 346.8 342.8 337.3 332.4 330.3 328.1 324.2 318.2 316.4 312.9 309.2 304.9 301.6 296.6 292 287.4
279.9 283 285.8 287.3 287.7 290 293.4 294.6 293.9 289 281.6 272.4 266.3 262.1 261.9 262.3 262.6 266.4 276.1 284.4 293.1 301.9 311.6 318.7 325.5 329.5 330.6 331.7 335.7 337.5 339.3 342.1 347.3 357.7 361.8 362.8 364.9 366.1 366.7 366.8 365.6 368.2 374.4 378.8 389.3 401.2 399.6 397.1 397 395.3 392.7 381.4 376.7 368.9 361.9 359.5 355.8 331.8 299.7 267.2 253.1 250.9 254 256.9 257.3 254.8 251.5 246.7 241 237.4 234.5 233.1 231.4 229.8 223.4 219.9 217.5 213.8 211.5 208.6 206.1 205.7 203.8 198.8 194.8 190.5 186.4 184.8 178.9 171.2 172.6 177.7 180 182 181.4 177.7 175.9 173.6 169 165.1 161.3 154.6 152.5 154.4 151.9 145.6 144.6 144.6 144.6 144.6 144.6 144.6 144.6 144.6 144.6 144.6 144.6 144.6 144.6 144.6 144.6 144.6 144.6 144.6 144.6 144.6 148.8 149.7 150.4 151 154.9 159.2 163.9 169.8 173.9 177.6 180 183.9 188 189.6 190.6 182 190.7 198.8 201.5 203.6 207.2 210.2 213.3 216.1 218.6 222.4 225.6 227.3 219.6 235.9 244.2 250.3 256.1 265.2 273.9 285.8 298.3 310.9 326.2 332.6 335.4 343.6 350.1 352.5 353.7 356 358.3 363.2 370.7 374.3 373.9 372.8 370 366.6 362.8 358.9 355.2 351.2 347.6 343.5 339.5 334.9 332.4 330.3 326.4 321 317.7 316 310.5 306.6 303.3 296.8 291.2 287
280.1 282.4 285.1 287.1 288.3 291.2 293.6 295 291.8 285.8 279.8 270.5 264.8 262.1 262.1 262.6 263.6 267.2 276.3 286.6 297.6 307.1 315.5 322.8 327.9 332.4 334.5 336.8 340.2 341.3 344.2 347.1 352.7 362.8 367.1 367 367.4 368.8 369.8 369.5 368.8 368.8 374.6 380.2 390.7 400.3 402.8 398.6 393.7 389.5 386.4 381.1 375 369.6 359.6 350.5 338 319 285.6 254.9 247.5 248.3 251.4 254.2 254.8 252.4 248.9 245.4 242.2 238 235.9 234.2 231.9 230.1 225.8 222.3 218.4 214 210.3 207.4 205.5 207.7 204.6 199.8 195.1 190.8 187.1 182.2 177.2 169.4 168.3 174.1 176.5 176.9 174.1 172.6 171.7 169.8 165.2 162.1 158.1 152.6 150.6 151.5 150.2 144.6 144.6 144.6 144.6 144.6 144.6 144.6 144.6 144.6 144.6 144.6 144.6 144.6 144.6 144.6 144.6 144.6 144.6 144.6 144.6 148 152.6 156.1 155.3 154.2 160.2 162.9 169.1 174.1 178.6 182.7 186.2 189.8 193 195.3 196.9 198.3 193.8 198.4 204.3 207.3 210.7 214.1 216.6 220.2 223.5 226.2 229.4 233 236.7 235.9 246.1 252.3 257.9 265.5 273.3 283.2 294.4 307.1 321.7 333.1 337.6 344.3 349.9 353.9 355.7 357.9 360.1 363.3 367.2 372.9 373.1 371.5 369.8 365.6 361.9 358.5 354.9 351.7 348 344.7 341.7 337.8 334.6 331.7 327.7 323.5 320.9 317.5 313.1 309.6 305.2 299.3 293.7 288.9
280.2 282.6 285.2 287.6 288.7 291.9 293.9 293.5 289.2 283.9 277.2 269.4 264.8 262.4 262.7 263.5 264.8 267.8 277.1 287.9 301.3 312.7 321.4 328.3 332.2 337.4 340 342.5 345 345.5 348.4 352.5 357.6 366.7 371.4 370.5 370 371.2 371.2 370.9 371.1 372.8 376 381.5 388.1 398.2 400.5 398.7 391 386 382.5 377.5 375 369.5 363.3 345 319.9 298.1 271.7 248.6 241.5 245.7 249 251.3 251.5 249.7 247.2 244.4 242.9 239.7 238.1 236.4 233.6 231.5 227.1 223.2 218.1 212.3 209.3 207.5 207.2 207.4 203.1 198.7 193.7 189.3 186.3 181.2 173 164.9 165.3 169.8 171.2 171 169.8 169.1 168.1 165.9 161.6 158.4 154.6 149.1 148.5 148.1 144.6 144.6 144.6 144.6 144.6 144.6 144.6 144.6 144.6 144.6 144.6 144.6 144.6 144.6 144.6 144.6 144.6 144.6 144.6 144.6 149.2 153.1 161.4 163.2 161.4 157.8 162.4 166.6 173 177.8 182.6 186.2 190.2 194.4 197.2 198.9 201.1 202.4 204.2 198.3 205.7 210 214.4 218.3 220.5 224 227.4 230.7 234.1 237.4 241.7 234.4 248.3 254.5 259.2 266.1 274.5 282.2 292 304.4 316.9 329.5 337.4 344.4 350.4 354.8 356.2 358 360.3 361.7 363.9 366.3 368.4 368.8 368.6 365 361.3 357.4 353.6 349.5 345.7 343.1 341.1 338 334.4 331 328.1 324.4 321.6 318.9 315.4 311.2 306 300.2 294.3 289.7
282.3 284.9 286.7 288.8 291.2 293.2 294 291.6 286.8 282.2 275.5 271.6 266.7 264.1 264.2 265.6 266.5 270.3 278 287.8 303.9 316.8 326.5 332.8 337.1 341 344.1 346.6 348.8 350.5 354.1 356.4 361.1 369.4 375.1 373.3 371.4 372.1 372.9 373.1 375.1 377.8 380.1 383.3 386.7 394 398.7 399.2 391.8 381.5 374.9 372 369.4 366.9 357.9 343.6 314.3 289.2 262.8 242.8 237.9 242.7 245.7 248 248.8 247 244.1 244.8 243.6 242.4 241 238.6 236.4 232.2 229.3 223.5 217.8 211.2 209.5 207.4 207.6 204.6 201.2 197.8 192.6 187.3 183.1 179.3 173.4 165.2 161.6 163.5 166.6 167.3 165.8 166.1 164 162.2 158.3 153.7 151 146.2 144.6 144.6 144.6 144.6 144.6 144.6 144.6 144.6 144.6 144.6 144.6 144.6 144.6 144.6 144.6 144.6 144.6 144.6 144.6 144.6 144.6 150.1 156.4 163.5 167.7 168.8 167.6 164.1 164.2 170.6 176 181.3 185.4 188.5 192.8 197.6 201 202.8 205.4 207.2 209.5 204.8 208.9 215.4 218.7 221.3 224.6 227.9 231.9 235.7 239.6 243.4 245.4 246.6 242.9 254.8 261.6 268.1 275.5 282.9 290.7 302.1 314.3 324.3 334.5 342.2 349.1 353.1 355.2 356.2 356.9 357.9 360.4 362.3 363.2 362.8 360.8 358.2 354.4 350.8 347.2 342.9 339.5 337.7 333.8 332.6 330.5 328.6 326.6 323.1 320.7 318.1 315.1 310 301.9 295.1 283.3 280.5
284.6 286.2 288.6 291.2 292 292.9 294 290.1 286 281.5 276.8 274.5 270.3 268.7 271 272.1 270.5 272.4 280.6 290.8 303.4 316.2 330.3 337.9 343.1 344.8 348.8 350.5 352.9 354.4 358.9 360.6 363.8 369.5 377.7 376.1 373.7 373 374.4 376.6 379.7 382.5 385.4 388.2 386.7 385.8 389.9 390.8 391.1 386.3 376 372.5 366.3 358.7 351.9 329.1 300 269.6 247.6 238.8 234.9 239.2 241.6 243.8 244.9 243.5 243.7 245.2 244 244.4 242.8 240 237.3 233 228.4 222.5 217.6 211.5 209.2 207.2 204.2 201.4 198.9 195.6 190.3 184.4 179.1 175.2 169.3 160.7 157.1 161.6 160.5 163.2 163 162.7 160.9 158.3 155.8 150.7 148.3 144.6 144.6 144.6 144.6 144.6 144.6 144.6 144.6 144.6 144.6 144.6 144.6 144.6 144.6 144.6 144.6 144.6 144.6 144.6 144.6 144.6 152.3 158.3 163.7 168.8 172.5 174.5 172.2 168.5 168.1 174.2 181.1 186 189.2 192.2 196.2 201.1 204.3 206.9 209.5 212 214.6 213.2 212.8 219.2 222.2 225 227.9 231.6 235.7 239.8 244 247.7 250.6 252.9 251.4 249.9 261.1 269.9 277.9 284.5 290.5 300.1 311.6 320.9 329.2 337 342.8 348.3 350.6 351.9 352.7 353.4 356 359 359.6 358.8 356.8 353.7 349.8 346.6 343.7 339.9 336 332.6 329.8 326.9 325 323.5 320.7 317 314.5 311.9 308.9 303.2 296.4 287 292.7 289.7
283.5 286.2 288.2 289.9 292.8 294.2 293.3 290.7 286.4 283.1 279.8 276.8 275.3 275.2 278.3 279.5 275.3 273.9 285.8 292.4 302.3 315.8 329.7 340.4 348.5 350.1 353.5 355.1 357.6 360.9 365.6 367.1 368.7 371.5 377.9 378.2 376.9 375 377.9 381 383.8 386.4 389.5 394.2 391.8 386.2 385.4 380.7 378.9 377.5 369.8 362.5 358.9 347.2 328.7 308.4 284.3 256.5 242.2 234.8 232.8 235 237.4 238.9 239.3 240.6 244.3 245.7 245 244.9 243.3 241.4 237.7 231.7 226.8 221.3 216.7 211.5 207.6 204.1 200.1 198.1 195.5 190.2 187.1 183.1 176.9 171.6 166.2 159.7 157 155.8 154.8 157.9 158.6 159 157.8 155.4 150.7 148.2 147.2 144.6 144.6 144.6 144.6 144.6 144.6 144.6 144.6 144.6 144.6 144.6 144.6 144.6 144.6 144.6 144.6 144.6 144.6 144.6 144.6 147.7 156.3 161.5 165.4 170.6 176.3 178.4 176 171.5 173.5 180.2 185.7 189.8 192.9 196.6 200.5 204.6 207.6 210.2 213.3 215.8 218.7 216 216.4 223.1 225.7 228.5 231.5 235.9 239.7 243.8 248 252.1 254.7 257.2 259.1 259.1 261.8 266.8 279.2 285 291.7 299.1 308 318.1 326 331.9 335.8 339.4 343.3 345 346.1 349.5 351.6 353.4 355.3 354.7 354.1 351.1 347.7 343.5 339.5 336 332.5 328.6 325.6 323.7 321.7 319.6 316.3 313.4 310.3 307.7 304.4 298.3 293.4 287.6 294.4 293.1
282 284.7 286.7 290 292.1 295.3 293.3 289.2 287.3 284.6 282.8 280.3 281.5 283 286.2 285.9 279.4 277.4 283.8 293.2 305.8 321.2 333.1 343.4 351.3 355.9 358.6 361.7 364.3 366.6 372.5 374.1 375.8 378.6 381.3 381.9 381.1 378.6 381.7 385.4 388 390.4 392.8 401.8 396.6 388.4 389.4 382 372 367.1 356 352.2 347.8 340 322 296.8 271.6 249.1 239.1 232 230.2 231.3 233.1 233.1 234.6 238.4 242.4 245.3 246.2 245.8 242.7 240.2 236.2 230.1 225.2 219.7 214.7 208.9 203.3 200.7 196 194.2 191.6 186.1 183.3 179.1 173.4 169.3 164.6 158.4 155.7 154.6 153.1 152.4 152.2 151.5 150.2 149.3 148.7 148 146.7 144.6 144.6 144.6 144.6 144.6 144.6 144.6 144.6 144.6 144.6 144.6 144.6 144.6 144.6 144.6 144.6 144.6 144.6 144.6 147.7 150.5 157.9 164.5 168.3 172.4 177.8 181.9 178.9 175.8 178.2 183.9 189.2 192.9 196.4 200.6 204.5 208 211.1 214.3 217.3 219.8 222.2 219.4 219.8 226.4 229.3 231.9 236 240.5 244.4 248.5 252.7 257 259.8 262 264.3 265.9 269.7 271.9 276.3 288 293.9 299 304.1 313.6 320.1 325.8 330.5 332.4 334.5 337 340.2 343.3 346.1 349 349.5 349.3 348.9 347 343.1 338.7 335.7 332.9 329.6 325.7 322.6 320.4 318.8 315.7 312.5 309 305.6 302.1 299.1 295.5 291.8 289 294.7 295.4
283.2 284.4 284.8 286.5 289 292.3 292.1 289.5 288.6 287.4 285.5 284.5 287.8 291.9 295 292.9 288.8 285.3 286.8 295.9 311.6 329 341.6 351.3 354.9 361.2 364.2 368.7 371.1 374.8 377.7 380.9 383.1 383.6 384.9 385.7 385.2 382.2 385.7 390 390.7 389.7 393.8 392.9 393 374.1 376.7 377 364.8 356.5 354.3 351.9 339.9 329.8 314.5 291.3 264 245.7 237.3 231.1 228 228 229.1 228.7 232.3 236.2 239.6 241.4 242.7 242.1 239.7 237.3 233.8 227.7 223.4 218 212.8 205.4 199.4 195.8 191.2 188.2 185.2 182.1 179.7 175.7 170.8 166.3 161.8 156.7 155.5 155.8 156.7 152.7 150.8 150.1 149.6 148.9 148.4 147.7 146.7 144.6 144.6 144.6 144.6 144.6 144.6 144.6 144.6 144.6 144.6 144.6 144.6 144.6 144.6 144.6 144.6 144.6 144.6 146.8 148.6 151.5 159.4 165.1 170.3 175.3 179.2 182.8 179.6 177.3 181.9 187.7 193.1 196.4 199.4 203.5 208.1 211.7 215.1 218.4 221.9 224.5 227 226.9 221.9 228.9 232.2 235.9 239.5 244.9 249.7 254.2 258.4 262.6 265 267.2 269.7 272.8 276 279.9 274.9 286.1 294.4 299.3 303.4 310.6 316 319.7 323.7 327.2 329.1 330.8 333.6 337.3 339.5 342.7 344.3 344.1 343.2 341.3 338.7 335.9 333.1 329.9 326.6 323.6 320.5 316.9 314 311.2 308.1 304.4 299.8 297.6 294.6 294 292.3 292.4 296.2 298.3
284.3 286 285.6 287 288.2 288.7 289.2 289.7 289.7 289.6 290.3 291.8 295.8 301.5 304 301.4 296.9 294.5 296 301.3 315.1 335.4 348.3 358.4 362.9 365.6 369.6 375.4 379.4 383.5 385.9 388.3 389.1 389.5 389.3 389.2 389.2 387.2 387.1 389.5 388.1 378.9 372.1 369.8 367.1 355.4 356.4 358 359.3 353.7 342.5 343.1 336.5 315.6 305.2 284.2 254.5 243.1 235.3 230.4 227.2 225.7 226.3 225.8 229.5 232.9 235.8 238.4 240.2 239.6 237 234.7 231.7 227.7 220 213.7 207.6 201.3 195.1 190.8 186.5 183.4 180.7 177.5 175.5 172.5 166.5 161.7 158.3 156.5 158.1 159.1 157.3 153 150.5 149.6 149.5 148.8 148.2 147.6 146.1 144.6 144.6 144.6 144.6 144.6 144.6 144.6 144.6 144.6 144.6 144.6 144.6 144.6 144.6 144.6 147 147.3 146.9 148 150.9 157.4 156.6 163 168.5 177.2 180.3 181.1 178.3 179.6 184.7 190.2 195.6 199.6 202.5 206.5 211.6 216.5 221.4 223.6 226.5 229.4 231.6 231.3 230.5 224.8 236 240.8 244.8 249.8 254.8 259 263.7 268.4 272.8 274.4 276.4 279.1 282.5 285.3 285.4 288.4 295.8 300.5 304.7 310.1 313.8 317.1 319.8 322 324.2 326.1 328.6 332.1 334.8 337.1 338.8 339.6 339.6 338.4 336.3 334.5 331.4 327.2 324.3 321.6 318.2 314.3 310.6 308.2 305.6 302 300.1 296 298.2 297.7 294.2 294.4 298.3 301
282.7 284.2 284.5 287 289.4 290.3 291.2 292.1 294.2 295.8 296.9 301.3 306.8 311 314.4 310 305.1 304 306.5 311.2 322.7 342.6 358.8 367 369.9 372 376.1 381.6 386.9 392.1 394.6 395.3 395 394 393.9 393 391.4 388.3 381.2 377.5 367.2 354.9 343 336.2 337.8 332.4 333.1 344.2 349 348.5 333.3 324.2 316.8 307.5 293.8 273.3 251.2 238.9 233.8 229.6 227.1 225.4 222.1 222.9 226.6 230.2 232.9 236.1 237.4 236.9 233.7 231.5 229.8 223.6 217.8 209.9 202.6 195.7 191 183.6 180.1 178.3 175.9 174.7 172.7 168.5 162.1 158.5 158 160.8 162.4 161.5 158 154.2 150.9 149.6 148.9 148.7 148 147.5 146.5 144.6 144.6 144.6 144.6 144.6 144.6 144.6 144.6 144.6 144.6 144.6 144.6 144.6 144.6 144.6 149 148.9 149.9 150.9 155.1 159.9 161 158.9 165.6 176.7 178.5 178.2 180.3 184.2 188.7 192.3 197.4 202.2 205.9 209.9 215.5 222.1 227.1 230.4 232.7 234.4 235.9 236.6 235.8 231.5 241.4 245.7 249.9 254.7 260 264.4 269.3 274.1 277.8 280.3 283.4 285.2 288.3 290.4 291.6 286.6 299 303.4 306.6 310.1 313.1 315.7 317.7 319.1 320.7 322.3 325.2 328.2 330.5 332.5 335.1 335.9 335.6 335 333.4 333.1 330.3 326.3 322.7 319.6 316.4 312.7 308.6 305.9 304.7 301.4 298.2 297.5 299.7 299.2 296.5 295.4 299.8 303.2
281.3 281.7 283.2 285.2 288.2 291.8 293.7 296.7 299.8 302.7 307.4 315 322.3 326.2 326.2 320.2 314.6 314.6 315.5 319.8 326.8 349 364.9 373.8 377.9 379.9 385.6 391.7 396.1 401.6 403.2 403 402.7 398.8 398.1 395.8 391.5 380.9 363.6 355.2 339.2 327.2 320.3 319 318.4 317.9 317.8 322.4 332.5 334.6 320.7 308.7 311.4 301.8 284.3 268.1 245.9 238.5 234.3 230.9 228.7 225.1 221.6 219.2 224.5 227.4 229.7 233.4 234.6 232.4 229.8 228.3 226.4 220.6 213.9 204.3 196.2 190.2 186.3 178.6 174 172.8 170.2 170.5 168 162.1 164.2 162.2 162.4 164.4 166.6 163 159.2 157.2 152.8 149.6 148.5 148.3 147.6 147.2 145.7 144.6 144.6 144.6 144.6 144.6 144.6 144.6 144.6 144.6 144.6 144.6 144.6 144.6 144.6 146 150.1 150.9 152.7 153.2 156.1 160 162.5 164.5 162.7 168.7 173.1 177.1 182.4 187.4 192 195.4 199.2 204.6 208.9 213.4 219.6 226 230.6 234.4 237 239.3 240.9 241.8 242.1 235.3 246.5 251.8 256.2 261.1 265.8 270.3 275.1 279.3 283 285.5 288.1 291.3 293.1 294.9 295.7 294.3 294.9 304.3 308.5 311 313.3 315.1 316.7 317.4 318.1 319.9 322.1 325.3 328.4 330.1 331.7 333 333.2 332 330.5 329.2 327.2 324.5 321.4 318.8 312.8 311.2 307.2 305 304.3 300.9 297.8 300.2 300.5 300.5 298.9 296.9 301.4 304.6
281.1 281.6 282.8 285.3 289 293.6 296.7 298.7 304.7 311.7 325.9 332.1 339.6 342.8 338.9 331 326.6 327.6 328.6 329.4 333.3 354.6 371 380.1 383.9 388.1 395.2 401.1 406.2 410.4 411.3 411.7 410 404.7 401.7 396.3 386.8 371.6 353.5 334.3 324.6 318.7 312.6 311.1 310.5 310.8 310.3 312.3 313.9 314.4 309.1 301.5 294.3 284.9 273.1 259.5 248.6 240.7 237.2 234.3 229.3 224 219.1 218 221.7 224.7 227.2 230.1 230.9 227.5 225.5 224.7 222.9 217.8 208.9 201.2 192.8 187.6 184.2 177.9 168.4 167.7 167.5 164.6 163.9 167.2 166.5 163.7 166.4 169.7 170 165 162.8 159.7 153.7 149.6 150.9 150.8 147.3 146.9 144.6 144.6 144.6 144.6 144.6 144.6 144.6 144.6 144.6 144.6 144.6 144.6 144.6 144.6 144.6 147.7 149.3 151.5 153.9 156.1 158.3 162 165 168.8 173.2 171.8 172.1 178.1 183.4 188.6 193.6 197.6 202.3 208.1 212.8 218.2 224.1 229.7 234 237.8 240.5 243.2 245.7 247.5 248.9 245.1 249.1 256.9 262.5 268.1 272.1 276.1 280.2 284.4 288.3 290.8 293.2 296.1 299 299.9 299.9 299.7 299.2 305.6 309 312.2 314 315.4 316.4 317 316.9 317.6 319.3 322.7 326.4 328.2 330.5 331 331 330.1 328.3 326.2 323.9 321.6 319.4 317.3 314.2 310.4 306.4 304.1 302.7 299.4 299.1 301.1 301.9 301.9 301.8 300.3 303.8 306.7
281.7 284.4 286.2 290.3 293.5 298.1 302.7 309.5 319.6 334 345.1 351.4 354.9 354.8 350.6 347 342.8 340.6 342.4 340.5 338.3 356.4 373.4 384.7 389.4 395.3 399.4 409.4 416.3 418.7 419.1 419.3 416.9 408.9 402.3 393.6 378.7 361.2 343.7 328.6 317.8 312.3 305.5 304.5 304.7 304.7 304.7 306.7 308.4 309.4 308.3 307 302.4 296.9 278.8 258.1 249.2 244.8 241.5 236.2 229.6 222.9 217 216.6 218.3 221.3 224.4 227 227.2 224.6 222 220 217.6 211.8 203.5 197.5 190.3 185.2 180.8 176.1 170.1 166.1 164.7 163.7 166.4 169.2 166.7 169.4 173 174.9 171.3 167.1 164.8 160.1 154.5 151.5 148.4 151.1 147.3 145.6 144.6 144.6 144.6 144.6 144.6 144.6 144.6 144.6 144.6 144.6 144.6 144.6 144.6 144.6 144.6 148.2 149.9 151.4 154.4 159.6 166.8 168.8 170.7 173.3 175.5 174.8 175.7 181 185.4 190 195.5 200.8 206.3 211.8 217.1 223 228.6 234.2 238.1 241.9 244.5 247.2 249.8 252.8 255.1 252.8 251.8 263 269.3 274.6 279.1 282.8 285.9 290 293.9 297.2 299.3 301.2 304.6 304.9 304.9 303.2 302.6 307.1 311.6 313.3 315.2 316.6 316.8 317.1 317.6 313.7 319.2 321.5 324.5 326.9 329.2 329.7 329 328.2 326.3 323.5 321.9 320.3 318.1 315.2 311.7 308 304.9 302.3 300.6 301 301 302.2 303.8 304.1 304.5 304.3 306.3 308.3
282.6 286.2 295.8 306.6 303 312.1 315.5 324.3 344.1 357.7 362.5 366.8 372.3 369 362.5 361.8 358.8 355.4 353.9 354.1 352.6 364.1 378.4 388.4 394.9 402.6 409.8 419.9 425.8 426.9 426.7 426.9 422.5 410.7 399.7 385.9 369 351.6 334.4 322.6 313.7 308.5 303.4 300 300.7 300.4 300.3 302.1 304.2 315.4 314.4 311.8 303.2 287.6 276.3 268 259.3 252.8 244.8 236.4 228.7 222.1 215.7 215.5 215.4 216.6 220 223.7 223.6 221.2 219.1 216.4 213.3 208 198.4 194.4 189.4 182.9 178.2 175 167.7 165.6 164.8 166 169.3 169.4 170.6 174.3 178.2 176.9 170.8 166 162.9 157.4 153.6 152.1 148.9 149.8 144.6 144.6 144.6 144.6 144.6 144.6 144.6 144.6 144.6 144.6 144.6 144.6 144.6 144.6 144.6 144.6 146.7 150.9 151 152.5 154.8 164.4 169.7 172.7 175.4 178.1 179.1 176.9 177.1 183.4 189 194.7 199.5 204.3 209.3 214.8 220.7 226.9 232.8 238.4 242.7 246.5 248.6 251.2 254.3 257.9 260.3 259.8 254.5 269.1 275.9 281.2 285.1 288.2 291.4 295.3 299.1 302.6 306.6 308.3 309.9 310.4 310.5 310 308.9 308.4 313.7 315.3 315.7 316.8 317 317.2 318.2 318.7 319.6 321.3 323.1 325.1 326.8 328.3 327.6 326.7 324.8 322.5 320.8 319.2 317 313.7 309.5 306.1 303.5 301.2 300.4 303.2 302.6 303.2 306.1 307.1 307.9 307.2 308.2 309.7
289.8 306.9 312.3 321.5 324.9 329.4 335.5 337 354 379.3 382 382.9 388.7 383.6 374.7 375.9 374.5 373 367.7 367.3 362.9 373.9 383.5 394.4 404.2 410.2 417.2 428 432.8 432.7 430 432.9 420.5 407 393.7 377.2 359.2 342 327.4 316.8 309.3 305.5 301.5 297.7 297.1 296.7 296 297.4 299.3 305.9 321.6 315.7 300.6 301.8 298 289.3 279 269.7 250.7 236.2 228.1 222.4 216.4 214.7 214.7 214.4 217.9 221 219.9 216.9 214.4 212.3 208.8 204.2 195.4 190.1 185.5 180.3 176 173.2 168.1 166.4 165.7 169.2 170.6 171.3 174.1 177.4 181.8 176.9 169.8 164.8 158.6 153.8 153 152 151.2 150.2 144.6 144.6 144.6 144.6 144.6 144.6 144.6 144.6 144.6 144.6 144.6 144.6 145.1 145.3 144.7 146.2 148.7 152.7 153.2 158.7 162.1 167.5 171.9 176.7 179.3 182.6 182.3 180.1 179.5 183.1 191.9 199.4 204.9 208.5 212.8 217.6 223.6 229.9 236.5 242.5 248.4 253 255.6 258.1 260.3 263.2 266 266.8 263.8 276.4 281.9 287 290.3 293.5 296.9 300.6 304.7 308.5 312.3 314.4 315.5 316 316.1 316.5 313.8 308.9 316.1 317 316.5 316.8 317 317.6 319 319.8 320.3 321.7 322.7 324.4 325.4 325.8 325.9 325.5 323.6 321.3 319.5 318.1 316.2 312.9 309.5 306.4 303.7 302 301.5 303.4 304.1 304.2 307.6 309.4 310 309.5 310.2 311.2
316.1 342.8 342.2 341 364.4 379 369.7 362.4 370.8 380.8 395 395.6 402.6 397.8 387.1 390.8 389.5 388.4 383 377.7 372.1 383.3 390.2 397.2 413.1 417.5 421.5 431.2 436.9 437.4 433.4 427.6 418.3 403 389.8 371.8 349.8 333.5 321.6 312.9 308 303.7 298.5 293.9 292.6 291.8 291 292.4 294.4 297.9 311.6 312.4 311.6 316.7 318.4 305.1 295.7 278 261.1 237.7 227.3 223.2 219.3 216.1 214.4 214 215 217.6 214.8 211.6 209.6 207.5 202.7 197.9 192.1 187.8 183.4 177 170.9 170.3 168.4 167.1 167.1 171 170.1 172.6 176.2 179.5 182.3 176.4 169.7 163.9 155.2 150.5 149.8 148.5 146.6 144.6 144.6 144.6 144.6 144.6 144.6 144.6 144.6 144.6 144.6 144.6 144.6 144.6 147.2 147.4 146.8 147.8 149.5 153.8 155.2 160.8 164.4 168.7 172.5 177.8 182 186.9 185.2 183.1 187.3 189.7 197.6 204.4 208.9 212.3 216.7 221.2 226.9 232.7 240.1 247.3 254.6 260.4 264.2 266.9 269.4 271.4 274 274.2 266.2 283.7 288.5 292.6 295.6 299 302.4 306 310.5 314.9 318.1 319.9 322 322 321 319.3 318.6 313.5 318.8 319.6 318.3 318.4 318.3 318.7 319.5 321.1 321.7 322.6 323.7 324.1 324.8 325.2 325 323.9 322.6 320.3 318.5 317.3 316 312.9 309.6 307.3 304.9 303.3 303.2 303.3 306.2 305.7 308.5 310.8 311.7 311.6 312.4 312.1
347.3 366 369.8 363 390.6 398.1 391.3 386.4 388.8 392.8 394.6 398.9 408.2 407.3 399.3 400.1 401.1 403.2 398.2 388.5 378.3 393.1 394.4 397.7 415.7 423.4 426.5 430.6 434.3 434.4 432.8 425.7 415.4 400.5 383.5 365.4 343.9 327 316.7 310.5 305.7 300.9 296.3 289.8 287.3 286.4 285.5 287.5 289.4 292.5 300.1 314.4 323.5 321.9 319.3 313.8 298.1 285 264.9 239.4 230.1 225.7 222.1 218.4 215.1 215.8 217 212 208.6 204.2 196.4 195.6 195.3 194 190.7 183.6 179.2 179.4 175.4 171.7 168.4 167 167.5 168.3 169.6 173.5 177.7 182.2 181.9 175.3 168.5 162.5 154.5 146.2 144.6 144.6 144.6 144.6 144.6 144.6 144.6 144.6 144.6 144.6 144.6 144.6 144.6 144.6 144.6 145.3 148.5 149.5 150.4 150.2 151.5 154.8 155.4 160.9 165 169.1 173 178.6 184.8 188 187.7 191.2 194.7 198.5 203.2 206.8 211.2 216.1 220.6 224.9 230.7 237.9 244.8 252.3 260.8 267.4 271.6 274.9 277.9 279.7 282.5 284.1 282.9 291.4 295.4 299.1 300.8 304.2 307.7 311.8 317 321.3 324 325.9 326.8 326.7 325.8 324.4 321.7 318 321.8 322.6 321 321.1 321.1 320 320.4 322.5 323.1 324 324.6 324.5 323.7 323.3 323.2 323.4 322.3 319.9 317.9 316 315.6 312.7 310.3 309.1 307.1 305.6 305.1 304.6 308.2 307.3 309.5 311.9 312.8 313.9 313.3 312.5
359.8 382.7 389.1 390.8 406.5 409.6 411.6 407.9 400.6 415 412.4 410.3 411.1 411.6 409.7 412.1 415.7 413.6 409.3 396.7 384.9 396.6 400.5 402.1 410 421.9 428.4 428.9 427.5 426.6 424.8 418.7 409.4 395.7 377.1 358.4 339.3 319.2 312.5 306.6 302 296.7 290.6 285.5 281.4 281.1 280.2 282.6 284.4 287.4 293.5 312.5 329.7 324.5 325.5 318 306 289 265.1 244.9 232.9 228.2 225.4 220.8 219.9 219.3 218.1 213.9 210.6 207.7 201.5 194.6 193.5 191.5 189.5 186.5 185.3 182.9 178.2 173.3 168.8 165.8 165.6 165.8 167.9 173.7 179.8 183.8 180.7 175.2 167.6 160.9 150.7 144.6 144.6 144.6 144.6 144.6 144.6 144.6 144.6 144.6 144.6 144.6 144.6 144.6 144.6 144.6 144.6 144.8 150.7 154 154.6 154.7 156.1 157.4 155.5 160.2 164.9 169.3 174 180.3 185.5 188 191.1 195.3 199 202.8 205.3 209 213.2 218.4 223.8 228.6 235.1 243.3 250.6 258 265.7 274 278.6 281.9 285.6 288.6 290.5 290.2 294.6 298.8 301.8 305.5 306.8 309.6 314.4 318.7 323.6 327.3 330 331.2 331.1 330.1 329.9 328.6 326.7 324.2 323.1 324.7 323.5 323 322.3 321.5 321.8 323 323.4 322.2 325.2 325.3 324.8 320.1 324.5 324.3 323 320 317.6 317 315.7 313.7 312.7 311.1 310.3 308.3 308.2 304.5 309.8 309.9 310.7 312.9 313.6 315.8 314.1 311.7
373.9 393.5 400 408.3 408.4 414.6 419.1 419.7 413.7 422.8 425.4 430.9 422.7 419 416.3 422.5 426.8 425.2 414.8 405.6 393.6 397.4 399.8 402.4 405.3 411.3 417.8 421.1 420.3 418.4 416 411.4 402.3 390 372.8 353.9 333.6 315 307.4 303 297.6 290.2 284.2 281.5 276.1 276.1 274.7 277.6 279.8 282.6 287.5 302.3 325.2 327.6 324.7 315.6 306.3 286 274.9 247.8 236.4 231.3 228.3 226 223.6 222.1 218.6 214.8 214.2 209.6 204.5 202.1 200.1 198.7 196.4 191.3 188.4 185.5 181 174.3 169.6 165.5 165.1 164.8 166.4 175.2 181.2 181.7 179.1 173.6 167.2 160.9 148.5 144.6 144.6 144.6 144.6 144.6 144.6 144.6 144.6 144.6 144.6 144.6 144.6 144.6 144.6 144.6 144.6 144.6 150.8 156.7 159.1 160.3 161.4 157.6 155.6 159.2 164.2 168.7 173.4 179.8 184 188.7 194.2 199 202 204.6 208.5 212.8 216.3 221.9 228.7 234.5 241.2 249.6 258.2 268.1 275.9 281.8 285 288.3 290.9 294.5 299 300 303.9 306.5 309.8 311.5 313.5 315.8 320.8 325.8 329 332.6 334.5 334.9 334.5 333.6 333.1 331.8 330.8 329.3 327.2 327 325.9 324.2 323.9 323.6 324.3 325.6 325.4 325 325.6 326.1 326.1 325.8 325.5 325.1 324 320.9 317.5 316.5 315.5 313.7 314.4 312.8 311.6 309.9 308.5 307.9 310.5 312.7 312.1 314.3 313.9 316.6 315.5 312
387.4 404.4 408.8 412.2 415.2 423.2 432.9 435.5 421.5 428.4 441.6 443.4 437.1 429.7 422.7 426.2 433.4 430.7 421.8 410.7 401.3 398.6 400.4 401.8 403.6 402.7 405.2 407.5 408.1 408.1 406.4 403.1 395 383.2 368 349.4 328.9 310.1 301.6 297.9 291.4 284.2 279.5 275.2 270.2 271.1 269.8 272.3 275.2 277.5 281.3 292.8 317.5 323.9 323 313 304.5 293.4 274.1 254.6 239.5 233.5 231.5 229.2 226.7 224.3 219 217.9 216.7 212 210.3 207.3 204 202 199.8 196.9 192.8 188.6 181.5 174.7 169.9 165.9 165 164.1 166 174.8 178.6 177.7 174.8 171.2 165.3 158.6 148.4 144.6 144.6 144.6 144.6 144.6 144.6 144.6 144.6 144.6 144.6 144.6 144.6 144.6 144.6 144.6 144.6 144.6 149.5 156.4 162.1 165 165.2 159 156.2 158.1 162.6 168 174.4 179.3 182.9 188.5 195.4 200.6 204.1 207.7 211.3 216.5 222 228.3 233.5 241.2 249.3 258.7 266.7 276.2 283.9 289.1 292.7 295.6 297.8 302.1 306.8 309.2 302.9 315.3 318.5 319.5 320.8 323.9 327.4 331.6 334.6 337.1 338.7 338.8 338.5 337.7 336.7 335.6 334.4 331.9 330.7 330.1 328.7 326.2 325 324.7 325.2 326.8 327.4 327 326.9 327.2 327.3 327 326.6 325.6 324.4 321.1 318.1 316.2 316.6 314.9 314 313.5 312.3 311.4 309.3 310.9 310.8 314.3 313.5 315.5 314.7 317 316.5 313.5
397.8 411 428.2 428.6 424.4 426.7 441 451.2 435.6 442.6 444.6 448.6 447.2 444 436.6 428.5 428.2 429.9 426.7 414.8 404.8 397.2 399.1 398.7 398.8 399.2 396.6 397.5 397.9 398 396.3 394.8 389.5 377.7 363.3 346.9 323.2 304.2 295.9 291.9 284.8 279.3 274.3 268.6 265 265.5 264.6 267.1 269.2 271.5 275.1 283 307.6 326.4 326.5 324 317.5 306.6 290.4 270 243.2 237.4 234.8 232.5 230.3 225.1 220.9 221.1 218 216.6 215.3 211.5 207.2 205.6 202.7 199 194.9 188.3 181.1 174.7 170 165.5 165.6 167 166.4 171 174 172.2 170.3 168 162.8 157.4 147.3 144.6 144.6 144.6 144.6 144.6 144.6 144.6 144.6 144.6 144.6 144.6 144.6 144.6 144.6 144.6 144.6 144.6 145 155.5 160.6 165.2 166.7 161.3 157.3 159.5 164.2 170.1 176.1 179.7 183.3 188.8 195.4 200.9 206.1 209.2 214.9 219.8 225.4 232.1 240.4 248.3 258 267 276 285.2 293.3 297.3 299.9 302.6 306.2 310.7 316 318.4 314.4 322.6 326.2 326.4 328.2 331.2 334.1 337 339.4 341 342.4 342.3 341.9 340.8 339.8 339.3 338.2 334.6 333.3 332.8 331.3 329.4 327.7 326.6 326 326.2 327.1 327.9 328.1 328.8 328.6 328.4 327.4 326.1 324.8 321.4 318.1 317.3 317.2 315.6 314 313.4 313.5 312.1 311.2 312.8 311.6 315.6 315.4 316.5 315.6 316.9 317.1 315
387.4 406.7 425.6 441.8 442.3 446.1 443.7 453.8 451 448.9 457.3 463.2 459.2 452.3 456.5 439.2 428.9 423.6 419.1 416.2 402.2 394.2 390.6 392.3 395 391.3 392.4 391.6 389.4 387 384.9 384 379.9 367.2 355.9 340.2 317.7 297.6 290.5 283.9 278.6 273 266.5 261.7 259.1 261 259.8 261.5 263.1 265.3 268.9 274.3 286.6 318.1 331.1 334.4 337.6 322.6 291.9 261.8 245.5 240.6 237.9 234.7 230.5 226.7 224.3 222.2 221.7 221 218.9 215.3 210.9 208.2 205.1 201.4 194.4 189 183.6 174 169.1 167 169.6 169.4 166.1 167 166.7 164.9 165.3 163.8 158.6 153 147.9 144.6 144.6 144.6 144.6 144.6 144.6 144.6 144.6 144.6 144.6 144.6 144.6 144.6 144.6 144.6 144.6 144.6 144.6 154.6 158.7 163.2 166.9 163.5 161.9 163.9 170 174.2 178.1 180.8 184.4 190.5 195.7 202.3 208 212.7 218.6 223.1 230.4 237.5 247.3 256.4 266.8 275 284.9 295.3 301.2 305.5 307.7 311.3 315.4 320.5 325.5 327.2 320.9 331.8 333.8 333.9 334.9 338.8 340 341.8 343.1 344.5 345.4 345.4 344.1 342.8 341.6 341.3 341 338.2 335.8 335.2 332.7 330.5 328.9 327.9 327.4 327.8 329.3 330.4 330.7 330.4 330.1 329.5 328.1 326.7 325.1 321.8 317.3 316.7 318.1 316.8 315.1 314.4 313.4 313.1 313.2 315.7 314.4 315.9 318.2 317.4 317.4 316.5 321.2 317.8
379.2 395.4 413.5 424.8 435.6 445.6 448.5 446.9 446.4 450.3 463.5 472.8 469.9 462.5 457.4 448.5 438.7 430.1 419.9 416.5 407.3 396.7 392.9 386.9 383.7 382.4 384.4 383.8 382.7 379.8 375 371.7 366.3 356.8 345.8 329.8 307.5 290 286.1 277.9 271.6 260.8 258.8 257.1 255.4 255.7 253.4 256 257.6 259.3 263.7 268.6 271.1 299.5 318.4 334.8 339.7 318.7 277.3 251.6 244.4 241.4 236.6 234.2 232.2 228.2 225.2 224.7 226.2 224.8 221.1 216.6 213.5 209.9 207.2 201.4 193.7 186.1 179.3 172.9 169.4 169 170.1 166.8 164.4 163.6 162.9 162.3 162.3 157.8 153 148.5 147.7 144.9 144.6 144.6 144.6 144.6 144.6 144.6 144.6 144.6 144.6 144.6 144.6 144.6 144.6 144.6 144.6 144.6 144.6 151.4 157.7 164.5 168.6 169.3 167.3 170.4 174.5 178.6 181.3 183.8 187.1 193 199 205.4 210.5 216 223.5 229.5 238.8 249.1 256.7 264.9 273.1 283.4 292.9 302.7 308.3 313.1 317.5 322.5 326.6 330.7 335.4 335.2 330.5 340.3 342 340.7 342.3 343.5 344.7 345.4 346.5 347.2 347.2 346.7 345.6 344.2 343 342.9 342.9 340.2 338.8 337.6 333.5 330.5 330.4 329.3 329.2 330.4 331.3 331.2 331.4 331.6 331 329.8 328.5 326.8 324.7 321.8 318.6 317.5 318.5 318.6 316.1 314.9 313.6 313.1 314.4 317.5 316.5 316.6 320.5 319.1 318.6 319.3 320.3 322
367.1 382.8 401.1 414.7 425 430.2 439 450.4 450.3 452 456.3 464.3 464.3 461.9 462.5 453.2 447.3 435.8 423.1 419 411.9 409.2 404.8 393.6 382.5 371.2 369.4 376.6 377.6 372.3 364.2 359.4 355 347.4 334.4 313.9 295.4 283.4 280.5 270.8 262.3 257.5 255 253.2 252.5 250 248.2 250.5 251.2 253.6 257 262.2 264.5 277 302.5 321.2 330.5 315.7 270.3 252.1 244.6 241.2 237.7 234.6 231.8 228.3 225.5 228 229.5 226.4 221.9 218.5 215.4 212.2 208.1 200.8 193 184.9 177.4 173.7 170.3 169.1 166.9 162.3 160.7 162.7 163 162.5 160 154.7 151.5 149.3 149.6 145.5 144.6 144.6 144.6 144.6 144.6 144.6 144.6 144.6 144.6 144.6 144.6 144.6 144.6 144.6 144.6 144.6 144.6 147.6 158.5 166.8 172.6 172.3 171.6 176 179.9 182.4 184.7 186.6 189.2 194.3 201.8 208.3 214.5 219.9 228 239.6 249.6 259.4 266.7 273.2 281.3 289.7 300.9 309.3 315.4 320.6 324.4 331.9 339.7 342.9 344 343.9 333.8 347.2 348.1 347.7 348.3 347.5 347.9 348.7 349.5 349.1 348.6 347.9 347.1 344.6 343.7 343.4 343.1 343.4 341.1 338.2 334.6 330.9 330.6 330.8 331.3 333 333.3 332.6 332.3 332.1 331.1 329.9 328.3 326.1 323.5 321.2 318.9 317.7 318.5 317.5 315.9 315.4 313.5 314.3 314.5 318.7 318.5 318.3 319.7 321.3 320.2 321 320 321.4
354.6 367.9 383.3 396.5 407.6 420.1 435.4 450.1 454.6 451.4 452 457.1 462 467.2 469.7 462 451.6 442.7 422.9 418.3 416.8 415.7 409.9 406.9 399.9 387.5 369 362.6 363.1 363.1 354.7 347.9 345 338.5 322.9 301.9 282.8 276.1 272.1 262 256.2 253.6 252.1 249.8 248.5 244.1 242.2 245.4 245.9 247.4 250.3 253.5 256.7 263.1 278.8 302.1 312.7 296.5 274.2 257.4 249.8 242.9 235.2 231.8 227.7 226.7 226.5 230.7 232.7 232.8 229.6 227.4 224.5 216.9 210.7 201.6 189.2 180.9 175.7 171.7 168.9 166.3 162 159 160.5 164.2 163.3 160.6 156.4 153.3 150.2 149.2 149 144.6 144.6 144.6 144.6 144.6 144.6 144.6 144.6 144.6 144.6 144.6 144.6 144.6 144.6 144.6 144.6 144.6 144.6 145.5 159.7 167.2 173.6 174.3 175.2 179.7 183.1 186 188.1 192.1 196.3 199.3 205.1 210.8 217.5 226.6 239.9 251.5 261.8 267.9 273 280.1 287.9 298.1 309.6 316.1 321.7 326.2 332.1 343.4 351.4 354.9 353.6 352.1 350.9 354.5 357.2 353 353.3 352.4 351.4 352 352.1 351 349.5 348.7 347.6 345.5 344.2 343.9 343.6 343.4 344.1 341.4 338 332.8 333.1 333 333.4 335.4 336.1 333.7 332.8 332.8 332.3 329.5 327 324 322 319.5 318.2 318.2 318 315.6 314.4 313.5 313.2 315 315.5 319.5 319.9 319.4 319.4 321.8 321.7 321.3 321 319.1
341 353.5 370 386.7 398.5 408.8 424 436.7 442.7 447 449.9 455.4 464 469.3 473 474.4 455 446.3 429.7 419.4 417.6 413.9 413.6 412.1 405.2 401 386.8 365 351.9 350.3 343.9 330 330.1 326.4 314 285.4 269.4 265.3 259.2 253.6 251.9 249.5 246.9 245.1 243.4 239.7 238.3 238.2 239.8 241.5 242.5 243.9 246 248.6 254.9 279.5 301.6 309 298 283.5 273.6 257.2 236.9 225.8 222 222.7 235.8 243.8 246.8 253.8 251.8 254.3 246.4 230.3 220.8 205.7 188.7 177.8 171.5 166.8 165.3 162.9 160 159.3 160.5 162.5 161.9 157.9 155.8 152.4 148.9 147.8 144.6 144.6 144.6 144.6 144.6 144.6 144.6 144.6 144.6 144.6 144.6 144.6 144.6 144.6 144.6 144.6 144.6 144.6 144.6 148.2 159.1 165.6 172.4 175.6 178.2 182.9 186.6 189.2 191.7 195.2 199 202.9 206.1 214.4 224.5 239.6 251.9 262.3 269.6 274.9 279.9 286.9 295.6 306.3 318.4 323.4 328.4 335.5 344.2 356.7 362.8 361.9 362 359.3 356 360.4 362.5 357.8 357.5 356.8 354.8 354.7 354.3 352.5 350.3 349.1 347.8 346.9 345.8 345.1 346 343.4 343.2 341.9 339.4 335 335.6 335.9 335 336 336.2 333.9 333.2 333.7 332.6 329.1 325.3 321.3 320.4 319.3 318.1 318.5 317.6 316.2 314.3 313.9 314.3 315.9 316.6 318.9 321.1 320.4 319.4 319.4 321.1 320.3 319.6 319.1
332 342.3 356.7 367.3 382.1 397.4 411.3 423.5 434.6 445.4 447.5 448.8 464.6 473.5 470.9 467 460 451.8 439.7 422.1 417.9 420.9 416.1 407.1 396.3 389.8 380.1 371.9 355.6 346.1 343.7 336.4 321.3 295.2 293.4 266.8 258.9 254.9 251 249.8 248.2 244.1 241.6 240.3 239.4 234.3 232.6 231.9 232.8 234.1 235.3 236.7 237.6 239.4 243.2 261.9 294.2 313 312.7 313.5 308.7 283.7 254.3 227.2 219.3 219.5 240.2 258 264.9 265.8 270.2 267.5 255.4 242.4 227.5 208.6 189 177.2 162 160.7 160.7 160.7 160.3 159.4 159.9 161 158.2 156.2 153.6 150.1 147.8 144.6 144.6 144.6 144.6 144.6 144.6 144.6 144.6 144.6 144.6 144.6 144.6 144.6 144.6 144.6 144.6 144.6 144.6 144.6 144.6 149.4 157.8 163.6 171.8 178.6 183 186.8 189.9 192.3 195.5 198.3 202.5 206 211.1 222.1 234.4 250.7 263.5 272.7 276.3 281.7 287.7 294.6 304.5 316.2 327.4 332.2 338.5 347.4 356.9 367.3 371 369.4 368.4 363.7 362.2 363.7 363.4 361.6 361 360.2 358.4 357.4 355.7 353.9 351.7 349.2 347.9 347.1 346.7 345.6 346.7 346.4 340.5 339.8 338.5 336.7 336.8 336.9 335.6 335.5 335.7 334.9 334.6 334 331.6 328.6 324.7 321.9 319.9 318.7 318.2 318 316.7 316.4 315.1 314.4 314.8 315.9 316.7 316.9 319.1 318.4 318.4 316.9 316.8 317.3 317.4 317.8
323.4 331.1 344.7 365 381.4 393.3 400.3 407.4 423.7 438.5 449.7 449.2 458.3 470.8 478.8 472.1 462 456.8 454.7 433.8 423.4 420 418.1 415.6 411.8 403.1 396 383.4 359.3 342.9 338.5 329.5 318.9 302 277.9 261.4 250.6 248.2 245.5 246.7 243 238.1 236 235.1 234.3 231.8 226.7 225.6 227.4 227.8 228.1 229 229.6 231.1 234.2 251.8 280.1 298.5 305.1 316.3 312.9 293.5 257.8 224.2 215.9 215.5 226.8 254 267.7 267.9 270.5 265.8 254.4 234.1 222 202.6 185.2 174.4 159.5 159.8 159.5 159.9 159.8 160.6 163 162 156.7 154.9 153.6 150.5 146 144.6 144.6 144.6 144.6 144.6 144.6 144.6 144.6 144.6 144.6 144.6 144.6 144.6 144.6 144.6 144.6 144.6 144.6 144.6 144.6 151.9 158.9 166.1 173.1 179.8 185.7 188.3 192.6 195.7 198.4 201.4 205.9 209.5 218.4 231.8 246.4 263.3 272.8 280.6 285.2 291.8 298.2 304.3 314.3 328.1 337 343.9 353.2 361.5 370.9 376.8 376.2 376.3 371.8 369.2 360 367.2 366.7 365.4 364.6 363.7 361.9 360.2 357.2 355.7 353.9 350.7 348.2 347.3 346.4 346.1 346.4 344.3 342.4 340.4 337.6 336.5 336.6 336.5 335.9 335.2 335.3 335.6 335.2 333.7 331.1 327.7 324 321.6 319.6 317.9 317.2 316.7 315.1 315 315.1 314.8 314.4 315.4 317.2 317.3 317.1 315.3 314.4 313.6 313.8 313.2 314 314.7
314.2 325.7 337.5 352.4 372.1 391.1 404.8 407.2 414.2 421.5 435.5 446.5 453.9 462.1 476.1 467 463.9 458.9 452 437.8 428.1 428.2 421.4 418.9 421.2 413.2 396.9 385.6 356.5 339.7 322.7 318.2 313.7 294.4 268.5 258.4 255.1 251.1 245.6 239.5 241.9 236.6 231.5 230.1 228.6 226.4 220.9 220.4 220.5 222 221.5 221.8 222.1 221.9 225.5 234.9 256 276.1 291.6 299.5 298.1 285.9 249.8 219.3 211.6 210.9 214.6 229.8 249.9 256.8 254.6 246.5 232.6 218 203.7 186.3 169.9 161.3 160.5 159.9 159.9 159.7 161.3 165.9 166.4 161.2 158.5 158.9 156.9 151 145.7 144.6 144.6 144.6 144.6 144.6 144.6 144.6 144.6 144.6 144.6 144.6 144.6 144.6 144.6 144.6 144.6 144.6 144.6 144.6 147.4 153.8 161.5 168.2 174.5 179.1 184.5 189.7 194.5 199 202.1 205.3 210.5 216.3 230 243.8 257.4 273 280.7 287.4 293.7 299.1 306.6 315.4 328 342.3 352.6 361.9 370.3 376 385.5 385.3 383.4 381.4 376.5 366.8 370.5 371.2 370 368.5 367.4 366.4 365.3 364.3 359.3 357.7 356.4 353.7 349.6 347.8 346.8 346.1 347 343.5 341.4 338.3 336.4 335.7 335 335.2 334.6 334.3 334.2 334.6 334.4 332.8 330.3 327.4 324.3 321.7 319.5 317.2 316.6 316.4 314.8 314.2 315.3 315.8 314 313.8 316.8 317.7 317.1 314.1 312.6 312 312.3 312.5 312.5 312.7
308.9 321.2 332.8 352.8 366.1 381.9 404.4 413.8 416.7 420 427 435.1 441.1 448.3 454.9 461.9 466.5 460 447.1 434.5 428.5 430.5 432.8 427.4 424.7 407.4 399.2 385.9 357.2 330.6 305.5 305.2 296 275.2 263.2 257.1 252.8 249.7 247 241.6 229.7 234 227.5 225.9 222.9 220.7 215.3 214.3 215.4 216.9 216.2 214.3 213.3 213 215.1 219.6 236.5 257.1 281.7 284 277.6 268.6 246.1 213.9 205.4 206.5 203.6 213.4 230.9 238.9 240.1 230.1 217.5 198.7 182.7 168.5 165 162.6 162.1 160.9 160.4 160.9 165.4 168.1 165.4 159.8 160.8 160.2 155.6 150.3 145.1 144.6 144.6 144.6 144.6 144.6 144.6 144.6 144.6 144.6 144.6 144.6 144.6 144.6 144.6 144.6 144.6 144.6 144.6 144.7 153.3 158.8 164.8 170.5 175.8 180.3 185.1 190.7 196.5 202.1 205.3 209.8 215.7 224.7 242.4 256.4 271.3 280.2 286.5 293.5 300.1 307.7 315.7 328.2 343.8 363.7 372.8 384.1 393 391.5 393.2 391.8 388.9 384.7 377.8 374.7 376 374.8 373.6 372.2 370.5 368.7 366.8 364.4 362.7 360.4 358.3 356.7 353.9 353 351.5 348.5 346.1 343.4 342.7 340.5 337.7 332.1 331.9 332.7 332.3 331.8 331.8 331.8 331.4 330.5 329.2 327.5 324.8 322 319.4 317.4 316.2 316.1 315.5 313.8 314.6 315.5 314.5 313.9 316.9 318 317.4 314.2 312 311.9 311.7 312.4 312.4 312.2
306.9 317.8 328.2 348.9 365.4 385.3 397 410.6 420.1 426 429.7 432.7 437 439.8 442.7 446.7 448 446.2 437.6 427.5 426.3 426.4 424 423.1 417.2 418 411.9 397.6 367.6 338.4 307.6 282.5 280.2 263.7 256.9 252 248 245.7 243 239.9 233.9 223.8 225.6 221.1 218.3 216.9 211.9 210.1 210.4 208.9 209.5 207.9 205.8 204.5 205.6 208.4 219.5 240.1 258.7 267.5 261.7 254.3 231.6 210.8 197.6 199.3 196.4 202.6 216 219.8 214.7 203.8 190.5 177.4 170.1 167.1 165.8 165.9 166.9 163.5 161.2 162.5 167.7 166.9 162.4 161.2 161 157.3 152.1 145.1 144.6 144.6 144.6 144.6 144.6 144.6 144.6 144.6 144.6 144.6 144.6 144.6 144.6 144.6 144.6 144.6 144.6 144.6 144.6 151.9 162 164.7 167.7 172.3 177.4 182.2 186.9 191.2 197.9 204.6 209.4 214.4 223.6 240.6 255.9 269.2 278.8 285.5 293.6 301.8 309.4 317.3 329.6 343.4 367.7 382.4 400.4 415.2 406.6 401.4 400 397.1 391.7 387.3 379.1 380.8 380.3 378.7 377.2 375.8 373.7 371.2 368.1 366.1 365.3 364.2 361.4 359.8 358.5 356.5 354.2 350.2 346.5 341.9 339.6 337.4 332.7 329.7 329.1 328.2 328.5 328.7 328.1 327.7 328.1 327.2 326.9 326.1 324.1 321.3 318.9 317.2 316.1 314.6 314 313.8 313.6 314.5 314.8 314.4 316.2 317.1 317 313.9 311.4 310.9 310.9 311.9 310.4 309.5
301.9 313.8 323.4 334.6 352.1 372.7 396.9 408.9 419.9 429.2 430.6 431.1 437.5 442.6 446.2 447.3 445.4 439.2 434.2 429.4 427.8 434.2 432.7 425.3 434.2 421.9 412.3 397.5 362.3 327 299.4 280 267.9 256.1 251.9 247.5 243.1 241.5 238.9 236.3 232 226.5 218.2 219 214.5 213.2 211.1 206 205.9 204.5 204.7 204.5 202.1 199.7 201.3 201.6 205.9 216.6 230.9 243 244.5 236 229.5 214.1 195.8 191.2 191.6 196.2 200.7 200.2 191.1 187.7 182.5 178.3 174.5 171.3 169.2 171 170.1 166.2 162.1 163.5 164.5 162.1 159.4 160.4 157.8 153.8 146.7 144.6 144.6 144.6 144.6 144.6 144.6 144.6 144.6 144.6 144.6 144.6 144.6 144.6 144.6 144.6 144.6 144.6 146.6 147.1 148.8 159 165.1 168.5 172.5 177.7 182.6 185.5 189.3 194.5 200.3 208.9 217.8 225.8 240.1 254.5 266.4 276.5 286.7 295.5 303.2 315.4 325.9 340.7 351.9 372.2 392.5 400.8 419.2 420 415.4 410.4 406.1 400.9 395.1 389.5 383 385.7 385.1 382.8 382 380 378 374.3 368.8 368.2 368.1 367.2 365.3 362.7 362.2 359 356.1 352.3 347.6 343.1 337.3 333.3 331.1 329 327.2 325.4 324 323.3 323.1 323.1 322.7 322.3 322.4 322.9 321 319.4 318 317.2 316.1 314.1 313.8 313.4 312.2 313 314.5 314.2 315.1 314.4 313.2 311.6 310.9 309.5 309.8 309.2 306.7 304
298.7 312.4 324.9 336.6 349.4 360.9 378.3 393.8 408.9 424.8 426.6 428.1 433 440.1 443.6 448 453.6 450.6 442 433.9 429.5 430.7 433.4 433.7 432.9 424.3 400.4 380.5 349.9 316.9 287.3 270 259 252.6 245.1 243.5 238.8 236.8 235.8 232.5 228.3 223.4 220.2 211.4 211.3 211.4 208.3 204.6 199.2 198.8 200 199.9 199.3 196.4 197.6 197.8 196.7 202.7 210.8 220.8 230.4 232 231.3 217.4 202.4 191.6 188.2 191.1 190.8 186.8 184.2 182.6 180.3 178.9 176.1 171.7 169.7 171.6 171.1 166.8 161.7 161.9 160 156.9 155.1 155.9 154.5 149.7 144.6 144.6 144.6 144.6 144.6 144.6 144.6 144.6 144.6 144.6 144.6 144.6 144.6 144.6 144.6 144.6 144.6 147.1 148 152.3 157.8 165.9 169.2 173.5 177.2 181.5 184.4 187 191.6 197.5 205.6 215.3 226.1 237.2 250.1 264.6 274.1 285.1 297.1 308.2 320.7 335.3 348.5 361.4 378.3 400.9 412.1 418.2 424.6 423.7 423.1 416.9 411 405 399.5 394.9 389.9 389.6 389.3 388.6 387.7 385.1 381.9 379.3 372.4 371.2 370.8 369.8 368.4 364.6 363.6 360.4 356.8 352 345.8 339.5 336 333.8 331.3 328.9 326.4 323.4 321.2 318.9 318.6 318.4 318.1 316.9 316.1 317 317.6 317.1 316.7 316.5 316 314.6 312.8 312.2 311 312 313.8 313.7 313.2 311.5 310 309.8 309.5 306.8 306.6 305.2 303 300.7
292.4 307.4 322.6 334.3 346.9 357.7 370.4 379.5 393.4 408.8 421.7 430.2 433.1 440 447.4 455.7 457.7 455.7 446.2 436.6 433.1 432.7 429.1 431.2 425.5 415 396.6 371.6 348.6 305.7 275.3 261.9 255.6 251 244.5 234.6 234.5 233.3 231.8 228.2 223.3 220 217.5 214.6 210.7 206.7 204.2 202.4 197.6 194.5 194.5 195.1 194.6 194 191.9 192.3 192 194.9 201.3 210.5 221.6 227.6 222.5 215.3 203.1 193.5 183.8 185 183.1 180.9 178.1 177.1 175.7 176.5 174.2 170.9 170 171.9 171.5 163.9 161.5 158 154.2 150 149.7 150.9 149.4 144.8 144.6 144.6 144.6 144.6 144.6 144.6 144.6 144.6 144.6 144.6 144.6 144.6 144.6 144.6 144.6 144.6 146.9 148.3 151.5 157.1 163.5 167.8 173.7 177.9 181.2 183.6 187 190.2 195.7 204.1 212.4 222.3 236.5 248.4 261.9 274.2 282 297.1 311.2 327.2 341.4 357.8 372.1 387.9 408.4 419.4 426.5 429.2 428.8 430.8 428.5 422.6 415.6 409.5 404.8 399.5 397.4 394.5 394.9 394.6 392.7 388.5 385 382.6 377.1 374.6 373.7 372.4 371.5 369 364.8 361.3 357.6 351.2 343.7 339.9 336.3 333.9 331.8 329.8 327.2 324 320.5 317.4 315.1 315.9 312.2 310.2 311.2 311.6 313.9 314.6 314.4 315 315.1 314.1 312.4 310.1 309.2 309.4 312.5 313 311.4 309.5 307.3 306.4 306.5 303.7 300 298.2 298.6 296.1
288.5 304.8 322 338.5 346.6 357.1 366.3 377 387.9 399 413.5 428.5 433.2 438.5 450.9 458.4 453.9 450.6 443 438.6 433.3 436.3 423.2 419.2 413.9 401.9 379.8 356.2 326.5 293 269.7 260.1 252.5 248.1 240 230.3 229.5 229.4 227.2 222.8 220.1 217.6 215 211.9 209.4 204.8 199 198.8 196.2 192.9 191 190.6 190.3 189.1 186.9 184.6 187.1 189.4 194 203.7 216.3 220.3 214 207.7 200.4 191 182.1 180.3 178.3 176 173.1 170.8 171.3 172.3 172 170.3 170.6 170.8 165.6 160.3 156.2 152.3 149.3 147.7 147.1 144.6 144.6 144.6 144.6 144.6 144.6 144.6 144.6 144.6 144.6 144.6 144.6 144.6 144.6 144.6 144.6 144.6 144.6 144.6 147 149.4 152.7 162.7 168.1 173.2 179.6 181.6 185.9 188.4 193.6 198.9 205.4 213.1 220.6 230.6 245 259.9 276.2 288.8 299.1 313.8 335.7 352.7 373.4 385.4 405.1 423.8 428.3 432.1 435.4 436.3 435.1 434.9 431.2 425.8 419.4 414.1 409.6 403.3 403 402 402.7 401.5 397 392.7 386.4 383.6 380.8 378.2 376.7 375.6 373.9 370.9 367.5 361.2 356.3 350.3 348.9 343.3 338.7 334.9 332.6 330.6 327.9 324.3 320.3 316.6 313.1 310.7 309.2 307.3 307.1 306.8 308.3 311 312.1 313 313.6 313.3 312 308.6 309.2 308.7 310.5 311.6 309.8 307.8 306.2 304.9 303.8 302.2 297.6 294 293.1 291
281 296.6 316 330.7 345.4 360.5 366.2 378.2 389.8 397.1 400.8 417.5 429.1 440 448.4 458.8 454 448 442.5 437 431 426.3 412.2 404.4 399.3 389 369.5 358.7 333.8 292.3 268.9 254 244.4 243.1 231.7 224.9 224.7 225.1 221.2 217.6 216.3 214.6 212.2 211 206.6 201.5 197.8 193.6 192 189.9 189 188.6 187.1 185.4 182.8 180.3 182.1 184.3 187.5 195.8 209.9 213.8 208.1 203.7 195.2 185.1 179.7 176.6 174.3 170.8 168.8 166.2 167 169 171.1 170.6 170.7 167.2 161.6 157.9 154.4 151.9 149.9 147.3 144.6 144.6 144.6 144.6 144.6 144.6 144.6 144.6 144.6 144.6 144.6 144.6 144.6 144.6 144.6 144.6 144.6 144.6 144.6 146.2 147.4 151.4 158.7 168.8 174 178.7 182 190.2 193.1 195.6 202.8 209 215.1 222 228.2 238.9 252.8 274.2 292.8 306.2 319.9 344.4 371.5 389 412.7 423.2 444.1 437.6 439.6 442 445.4 442.8 440.8 438.6 434.6 428.9 423.4 418.8 410.5 414.5 412 410.7 409.1 406.2 402.1 396.3 389.8 385.3 382.8 381 380.7 378.8 375.6 372.3 368 366.9 362.8 357.5 352.1 346.7 340.8 336.6 334.5 332.4 328.9 325.4 321.1 317 313.5 310.2 307.3 305.9 304.1 302.5 304.4 307.3 308.6 309.9 311.2 311.7 310.6 308.8 308.2 308.9 308.9 309.9 308.5 305.6 304.4 302 300.5 299.8 295.4 292.1 289 286.4
274.1 287 307 324.3 342 355.4 361.5 377 386 397.3 403.4 405.5 418.8 428.4 436.1 445.6 447.9 446.6 444.4 436 428.4 422 413.4 408.6 411.1 395.8 373.1 360.1 339.8 291.8 265.7 246.3 238.3 230.2 222.5 219.5 220.1 219.3 216.5 214.1 212.1 210.8 209.8 207.9 204 198.7 195.3 192.6 189.6 187.8 186.8 186.5 186.6 186.6 182.8 179.5 176.9 178.3 181 186.9 200.1 204 200.1 195.1 184.4 176.3 173.3 169.6 168.9 166.5 163.6 163 165.2 167.8 170.4 168.7 166 161.8 158.3 155.4 154.3 155.7 152.3 146.8 144.6 144.6 144.6 144.6 144.6 144.6 144.6 144.6 144.6 144.6 144.6 144.6 144.6 144.6 144.6 144.6 144.6 144.6 147.2 148.5 150.4 155.6 168.1 173.9 181.5 184.7 191 197.6 199.4 204.3 212 218.9 224.7 230.5 237 249.4 272.7 308.2 324.6 334 349.1 385.3 406.7 435.5 442 446.7 448.8 446.9 449.2 451.4 451.8 448.3 446.1 442.2 439.1 433.5 428.2 420.3 425 423.4 418.8 417.6 416.8 412.6 406.7 401.1 393.3 388.2 385.5 384 382.6 379.8 376.1 373.8 371.8 369.5 365 361.4 358 351 345 339.3 336.4 333.6 329.7 325.5 320.7 315.8 312.2 309.7 307.4 305.2 304.7 304.4 298.7 303.2 305.2 306.5 307.7 308.4 308.3 307.1 307.8 309.1 308.1 307.9 306.9 303.7 302.5 299.9 296.8 295.8 292.1 288.7 285.7 282.1
264.7 280 299.3 316.6 330.2 342.9 353.5 365.9 377.7 391.1 402.1 404 415.3 424.2 434.3 449.7 453.1 453.5 452.2 442.2 434.6 433.7 417.6 417.1 414.8 392.7 370.5 352.9 323 294.9 263.3 244.9 230.7 221.5 215.8 214 215 214.4 212.1 209.6 208.1 207.1 205.7 204.1 200.7 196.1 192.3 189.5 188.2 186.3 185.9 185.3 185.8 186.7 184.1 181.3 177.9 175.4 175 178.4 184.2 185.6 183.4 178.2 171 168.4 165.8 163.9 163.8 162 159.7 159.3 162.5 163.9 164.2 162.8 159.2 156.2 153.9 156.4 160.9 159.6 154.6 147.9 145.5 144.6 144.6 144.6 144.6 144.6 144.6 144.6 144.6 144.6 144.6 144.6 144.6 144.6 144.6 144.6 144.6 147 148.7 151 158.6 167.8 173.5 177.9 186.3 192.9 198 203.3 206.8 211.3 221.1 229.5 233.4 241 254.7 274.2 312.8 340.8 355.1 367.4 394.8 421.7 438.9 453.6 456.6 454.8 456.1 455.4 457.1 458.8 456 453.6 450.4 445.8 442.4 438 431.2 431.6 431 430 425.1 423.5 420.4 415.6 409.1 403.6 397.1 391.1 388.3 385.3 382.8 381.2 380 378 376.5 371.9 364.2 358.6 356.9 352.5 345.3 341.6 338 335.2 330.7 326.7 321.7 314.9 310.8 308.6 307.2 306.6 306.5 306.1 303.6 298.8 300.7 302.1 302.8 303.5 304.6 304.4 306.3 308.4 307.2 306 304.5 301.2 298.8 296.3 292.2 290.3 287.7 284.3 280.1 276
256.5 273.4 292.2 307.4 323.6 333.7 345.2 361.8 375.9 397 401.4 405.2 417.4 428.8 431.9 443 448.6 451.3 450.3 449 434.5 422.6 416.3 416.5 391.6 373.8 362.8 343.7 326.2 299.5 261.3 241.7 226.2 216.4 212.1 209.8 208.2 209.5 207.1 205 204 203.1 201.4 199.7 196.3 193.2 190.1 188 186.1 185.1 183.7 183.9 185.6 186.5 185.3 182.8 179.1 177.5 174.1 170.5 172.1 171.1 170.1 165.9 161.7 160.8 159.7 158.8 157.5 156.3 156.1 158.1 161.5 162.2 157.4 156.3 154 152.9 155.5 161.7 164.8 160.7 153.3 148.7 147.7 144.6 144.6 144.6 144.6 144.6 144.6 144.6 144.6 144.6 144.6 144.6 144.6 144.6 144.6 144.6 146 150.9 154.6 157.9 164.1 171.5 177.9 182.3 187.5 198.3 202.6 210.2 212.3 219 229.2 238.5 246.3 258.3 277.3 311.3 344 373.1 400 412.8 431.7 456.7 465.5 467.2 463.3 464.7 465.2 465.3 465.3 463.4 459.1 457.3 453.9 448.8 445.7 441.9 429.2 437.1 436.8 436.6 432.2 427.8 421.8 415.7 408.3 402.9 398.2 394.2 389.2 387.9 386.9 385.2 382.8 380.4 377.9 372.7 363.2 357.4 354.4 352.7 350.7 345.8 340.5 336 332.4 327.9 323.4 316 309.4 307.2 306.4 306.4 306.3 305.2 302.9 296.3 295.7 297.1 297.6 298.5 299.1 301.5 304.6 307.5 306.2 303.6 301.4 298.2 293.5 291.5 288.3 285.3 282.4 278.5 274.9 270.9
252.6 273.4 281.4 297.1 313.8 326.7 338.5 355.2 365.7 385.3 400.7 404.8 419.8 425.8 427.2 435.9 438.5 446.4 450.4 449.7 436.4 422.4 413.1 403.6 379.3 366.9 356.7 344.4 336.4 305.2 263.3 236.4 220.8 213.1 209.3 207.2 205.7 203.8 202.6 200.7 199.3 198.4 196.7 194.8 191.9 189.6 188.9 186.9 184.7 183.6 182.1 183.7 185.1 185.5 183.2 182.1 181.1 179.9 176.7 165.8 163.8 163.7 161.9 157.7 155.4 153.5 152.7 152.1 152 150.9 153.3 158.3 159.7 157.9 154.9 155.3 152.8 154.3 160.6 167.2 166.7 159.5 151.1 148.7 146.1 144.6 144.6 144.6 144.6 144.6 144.6 144.6 144.6 144.6 144.6 144.6 144.6 144.6 144.6 146.1 150.4 153.9 159.5 163.7 168.5 173.9 180.7 188 193.4 202.8 208.6 215.1 221.4 229.9 241.2 251 265.1 283.4 320.4 345.5 367.6 397.2 444.3 456.6 472.5 480.2 476.8 474.3 471.7 472.5 471.9 472 471.7 468.4 463.4 460.6 457.3 452 447.4 441.2 440.4 443.8 442.5 440.4 437.3 433.1 424.6 418.2 412.2 405.7 400.8 396.2 393.3 391.7 389.8 387.3 384.6 381.3 378 372.1 363 359.7 358 356.4 353.5 348.3 343.2 337.9 334.5 329.3 324.8 318.1 310.2 306.5 306 305.4 305.1 303.9 301.6 298 290.8 293.2 294.1 295.3 297.6 300.6 303.6 305.5 302.5 300.2 296.4 293.8 290.7 287.9 283.8 281 276.6 272.9 269.5 265
250.9 276.1 283.3 291 306.5 321.1 332.5 345.4 358.7 377.5 396.9 402 411.8 418 435.2 441.8 437.7 440.1 446.3 440.9 429.3 417.3 408 401.7 383.2 372.3 357.5 350 326.5 308.8 265.2 230.6 218.1 211.6 207.8 204.7 201.2 197.2 198 196.4 194.5 193.2 191.6 190 188 188.5 189.3 186.9 183.5 182.6 180.2 183.7 183.3 181.9 179.6 179.7 178.1 174.3 169.5 163.5 156.8 156.1 155.2 150.4 150.1 148 144.6 144.6 144.6 147.9 150.7 154 155.3 153.4 151.9 153.6 152.8 157 162.1 165.5 161 152.8 148.8 146.9 144.6 144.6 144.6 144.6 144.6 144.6 144.6 144.6 144.6 144.6 144.6 144.6 144.6 144.6 144.6 148.7 151.7 155.9 161.2 167.2 173.6 178.5 186.1 192.3 198 206.2 213 219.7 228.1 243.1 258 272.7 290.3 317.8 348 372.8 392 420.7 451.8 475.5 482.5 486.1 485.9 482.8 478.9 479.1 479.1 478.1 476.1 471 465.9 462.8 459.6 454.6 448.7 438.8 445.8 447.1 445.9 443.5 439.9 435 428.1 420.4 412.7 406.8 401.9 398.8 397 394.2 392.4 389.9 386.1 381.8 377.4 371.7 366.4 363.6 361.4 359 356.3 351.4 346.2 340.1 336.3 331.2 326.2 319.9 312 307 305.3 304.5 303.3 302 300.3 297.5 292.2 290.5 294.1 296 298.1 300.8 303 302.1 299.3 296.8 293.4 289.1 287.5 284.9 280.9 277.1 272.7 268.1 264.6 260.1
246.7 267.4 277.6 286.4 297.2 314.9 334.5 344.4 354 367.8 385.9 394 403 413.2 423.4 429.5 433.9 434.6 436.3 441.7 435.6 430.8 411.7 407.1 387.6 372.4 355.3 341.7 315.5 289.6 254.8 226.3 216.2 210.7 206.5 202.3 197.2 191.8 193.2 190.5 189.4 187.6 186.4 185.6 186.2 188.1 188.8 186 183.8 180.9 178.7 180.8 178.8 177.2 174.9 173.8 170.8 167.3 163.4 157.2 153 151.1 149.8 147.6 146.1 144.6 144.6 144.6 144.6 144.6 144.6 146.5 145.9 148.1 150.2 150.6 153.8 157.9 162.2 160.2 155.7 149.7 144.6 144.6 144.6 144.6 144.6 144.6 144.6 144.6 144.6 144.6 144.6 144.6 144.6 144.6 144.6 144.6 144.6 148.7 153.9 158.4 163.7 167.9 174.6 181.5 189.7 196.9 204.2 211.6 218.4 233.6 250.7 266.3 283.2 298.4 322.7 345.9 373 400.5 422.7 444.7 472.1 484.7 486.4 488 488.5 487 484.9 484.3 483.5 481.2 478.9 474.9 467.7 463.8 460.6 455.6 449 447.1 447.4 447.7 445.9 443.5 440.4 436.1 429.5 422.4 415.7 409.4 406.3 403.6 400.1 397.6 393.8 390.1 386.8 381.4 376 372.5 370 366.3 364.1 361.8 359.4 354.9 350.4 342.6 337.8 332.1 326.4 319.9 313.4 309.3 306.4 305.2 303.7 301.2 296.8 293.7 291.8 288.7 294.3 296.4 298.2 300.4 300.3 298.7 296.2 293.6 289.5 286.7 283.4 279.9 275.9 273.2 269.2 263.3 258.6 255.4
238.8 259.3 270.1 281.3 288.6 305.1 322.4 338.4 353.6 364.3 373.2 385 395.9 402.2 413.7 425.2 434.7 435.7 435.8 438.3 431.6 431 410.8 403.7 391.5 365.4 344.4 318.2 295.6 268.2 241.6 224.1 213.7 208.3 204 199.2 194.1 188.4 188 185.4 183 182.6 181.9 183.2 185.4 186.4 187.2 185.9 182.9 177.9 171.6 175.2 173.9 172.2 168.9 167.4 164.7 160.8 157 153.4 150.1 149.1 148.3 146.9 144.6 144.6 144.6 144.6 144.6 144.6 144.6 144.6 144.6 144.6 146.3 150.2 154.7 159.4 161.1 156.1 151 144.6 144.6 144.6 144.6 144.6 144.6 144.6 144.6 144.6 144.6 144.6 144.6 144.6 144.6 144.6 144.6 144.6 144.6 151.1 158.2 161.8 166.6 172.3 177.6 183.6 192.5 200.7 207.8 216.7 234.2 254.7 272.3 289.7 310 326.8 357.9 389.2 418.3 438.7 452.5 474.4 487 490.7 491 491.5 490.3 490 489.5 487.9 486 483.2 478.6 474.9 469.5 463.8 461.2 456.7 450.4 452.2 451.8 448.9 446.3 443.8 440.2 434.8 428.7 421.9 415.9 413.7 410.5 406.4 402.4 398.9 394.7 390.4 385.3 380.4 377.9 375.2 372.6 368.8 366.7 364.6 362.4 359.2 353.5 346.9 339.6 334.2 327.8 320.2 313.7 310.6 308.1 306.1 304.5 302.4 298.1 293.7 289.4 286.6 294.5 296.4 298.2 299.4 297.7 295 293.1 290.5 286.3 282.6 279.8 275.7 272.6 269.5 265.1 260 255 251.4
227.8 246.5 262 274.4 288.3 301.2 321 333.6 345 362.2 372.4 381.3 390.4 399.7 418.3 425.5 435.8 438.3 429.4 426.3 425.6 419.2 405.5 398 377.8 355.1 337.5 312 289.3 263.5 241 223.7 210.4 204.9 200.4 195.8 190.9 186.3 183.1 181.6 178.6 178.3 181.2 182.9 182.6 182.6 182.8 181.6 178.7 173.5 169.3 168.5 168.5 166.7 163.9 161.1 157.2 154.7 152.8 150.1 148.8 147.9 147.8 144.7 144.6 144.6 144.6 144.6 144.6 144.6 144.6 144.6 144.6 144.6 144.6 148.5 155.9 158.7 154.9 151.2 144.6 144.6 144.6 144.6 144.6 144.6 144.6 144.6 144.6 144.6 144.6 144.6 144.6 144.6 144.6 144.6 144.6 144.6 144.6 155.4 161.5 166.8 169.8 177 183.9 186.5 193.7 205 215.5 228.8 248.8 270.1 288.6 313.6 336.9 364.4 393.3 419.9 460.4 473.5 485.7 482.7 495.2 496.5 496.9 497.5 495.2 494.5 492.9 491.1 487.9 483.6 478.3 473.4 468.4 465 461.4 458.2 457.7 457.3 455.7 452.1 448.9 445.4 440.8 434.5 428.4 423 420.2 417.3 414.1 409 403.7 399.2 395.1 391.2 387.1 385 382.3 377.7 375 372.1 369.6 367.7 365.5 362.2 355 349.5 342.9 336.3 329.8 324.2 316.3 312.9 310.2 307.6 305.3 303 299 293.8 289.4 286.2 294.5 296.7 297.8 297.4 294.3 291.4 290.6 289.7 280.1 277.7 275 271.5 268.9 265.6 261.1 256.5 252.2 248.7
220.7 239.9 260.4 276 289.5 300.8 313.3 328.8 344 357.6 367.9 375.7 389.5 401.3 409.8 414.3 423.1 428.1 430 416.9 417 420.5 410.9 396 373.3 350.8 329.9 313.8 301.4 270.8 238.3 215.6 206 200.1 195.9 191.8 187.4 182.4 178.3 179.3 176.7 179.3 181.5 180.1 178.5 177.8 178 176.4 173.6 168.6 163.3 162.7 164.2 162.2 159.2 154.5 150.5 150.9 151.7 150.9 148.9 146.2 144.6 144.6 144.6 144.6 144.6 144.6 144.6 144.6 144.6 144.6 144.6 144.6 144.6 144.6 149.9 148.5 146 144.6 144.6 144.6 144.6 144.6 144.6 144.6 144.6 144.6 144.6 144.6 144.6 144.6 144.6 144.6 144.6 144.6 144.6 144.6 147.8 156.6 162.7 168.6 173.4 180.5 190.2 190.4 198.8 211.5 225.4 244.3 269.9 293.9 316.2 343 367.1 396.9 431.3 468.6 484.7 491.1 496.7 498.5 497.1 501.6 501.6 501.1 499.6 498.8 496.7 494.9 489.7 484.6 480.5 476.6 472.5 467.9 463 461.8 462.2 461.4 459.3 456 452.9 448.7 443.3 436.1 429.6 427.3 424.5 421.3 418 411.8 406 401.6 398.7 395.9 392.9 389.7 385.3 380.6 377.4 375.3 374.7 373.8 369.7 365.1 358.4 353.1 346.5 340.3 333 326.7 319.5 315.4 312.6 309.5 306 302.4 299.1 295.2 294 287.2 291.2 294.7 295.2 294.5 292.3 286.7 285.9 278.7 273.9 272 268.9 266.7 264.2 261.3 257.5 253.5 249.8 246
220.3 229.9 253.7 275.9 285 297.7 306.8 327.1 341.2 353.8 365.6 374.9 383.9 396.8 398.3 405.2 402.3 404.4 407 394.3 393.8 401.6 398.7 387.5 367.6 352.3 334.2 329.8 319.4 272.2 238.6 216.8 202.1 194.4 191.1 186.5 182.9 178.9 173.8 175.5 173.5 179.6 178.1 175.6 173.6 172.6 172.9 171.9 169.1 165.6 162.5 159.3 159.9 157.1 152.3 148.8 148.8 149.8 151.2 149.9 146.1 144.6 144.6 144.6 144.6 144.6 144.6 144.6 144.6 144.6 144.6 144.6 144.6 144.6 144.6 144.6 144.6 144.6 144.6 144.6 144.6 144.6 144.6 144.6 144.6 144.6 144.6 144.6 144.6 144.6 144.6 144.6 144.6 144.6 144.6 144.6 144.6 144.6 153 159 167.7 174.7 178.6 184.5 193.1 200.4 206.9 220 238.8 270.6 298.8 321.3 351.4 368.6 399.1 432.8 469.4 485.9 499.7 502.5 502 507.2 503.6 506.6 506.7 505.8 504.7 502 499.7 496.5 491.7 487.9 484.1 480.4 475.6 470.7 466 465.2 466 464.3 461 457.8 455.4 449.4 442.6 438.4 435.4 433.7 429.5 424.5 420.8 415.5 410 405.6 402.7 399.7 396.5 394.3 388.4 384.2 380.8 380.3 379.5 377.2 373.9 370.8 365.8 359.6 348.3 343.8 335.3 329.1 322 317.7 314.6 311.3 307.9 303.4 299.4 299.6 297.7 293.6 282.6 291 292.2 291 291.1 282.9 276.9 270.8 268.1 266.6 263.1 262.2 260.3 255.8 252.5 249.9 246.3 242.7
207.3 227.8 246.6 266.8 277 287.7 299.1 321.4 339.5 353.4 363.4 373.3 383.6 379.5 377.3 387 384 378.8 375.3 369.8 371.8 378.6 377.6 371.6 361.2 350.2 352.9 336.2 303.7 275.1 236.6 217 198.5 190.2 186.7 181.6 178.5 174.8 168.6 169.5 173.5 175.4 173.6 170.6 168.5 167.4 167.5 166.3 163.7 160.9 158.1 152.6 154.6 152.3 147.9 144.6 144.6 146 148.7 145.1 144.6 144.6 144.6 144.6 144.6 144.6 144.6 144.6 144.6 144.6 144.6 144.6 144.6 144.6 144.6 144.6 144.6 144.6 144.6 144.6 144.6 144.6 144.6 144.6 144.6 144.6 144.6 144.6 144.6 144.6 144.6 144.6 144.6 144.6 144.6 144.6 144.6 144.6 156.2 165.7 173.1 178.2 183.1 189.4 199.3 205.4 216.6 229 266.6 294.2 322.8 347 377.3 399.3 432.8 466.9 493.1 503.9 512.7 511.4 516.9 516 510.7 512.3 511.5 510 508.2 504.9 502.6 499.3 494.9 490.9 487.6 483.4 479.1 474.1 468.7 468.4 468.7 466.5 464.1 461.9 457.6 451.2 447.3 444 441.9 439.5 435.2 430.2 426.4 419.1 414.6 410.9 407.3 404.5 401.2 397.1 391.7 388.1 385.8 384.9 383.6 381 379.2 376.6 368 363.3 353.5 345.8 338 328.7 322.1 318.7 316.1 312.8 308.9 304.7 302.7 302.1 299.7 296.4 284.9 280.5 288 287.2 284.1 278.5 272 267.3 263 260.9 256.3 254.9 252.6 248.6 247.2 244.4 238.1 233.8
211.6 225.9 239.4 257.4 269 281.2 299.6 316.8 337.3 349.4 356.2 361.3 366.2 358.8 355.5 356.2 350.1 342 336.6 335.3 339 351.2 354.7 352.2 359.9 355.6 350.4 331.8 304 272.5 237.4 212.2 193.7 185.2 179.3 176.2 173.8 170.7 165.5 163.8 169.6 170.3 168.8 165.9 163.3 162.4 162.1 160.7 158.7 156.1 152.7 149.8 149.1 147.5 144.6 144.6 144.6 144.6 144.6 144.6 144.6 144.6 144.6 144.6 144.6 144.6 144.6 144.6 144.6 144.6 144.6 144.6 144.6 144.6 144.6 144.6 144.6 144.6 144.6 144.6 144.6 144.6 144.6 144.6 144.6 144.6 144.6 144.6 144.6 144.6 144.6 144.6 144.6 144.6 144.6 144.6 144.6 151.5 162.2 170.8 178.8 183.6 186 194 205.4 214.3 222.4 237.5 266.9 305.7 337.3 374.4 405 435.4 457.9 483.8 500.2 512.5 515.3 522.5 521.8 520.4 519.6 518.2 515.7 513.2 510.8 507.8 505 501.7 498.2 494 489.7 486.1 482.3 477 474 472.1 471.8 471.1 469.1 464.8 460.7 455.6 453 450.2 447.4 444.8 439.7 434.3 429.5 424.1 421 416.8 412.6 409.6 406.2 400.5 395.7 392 391.3 390.5 388.9 387.8 381.1 374 368.1 361.4 354.9 348.5 342.2 330.7 323.3 320.7 318.4 315.3 311.1 306.8 304.6 303.4 300.4 297.2 293.7 285.8 276.1 282 280.4 274.3 268.2 263 257.9 253.6 251.1 247.8 244.1 241.5 238.4 236 233.2 231.3
211 226.2 240.6 253.3 264.8 278.4 297.3 314 326 337 347 349.1 348.4 341 330.1 323.2 316.3 311.5 306.5 306.3 310.8 317.7 331.5 334.9 338.5 343.7 339.1 319.5 292 271.2 230.9 205.3 186.3 178.2 173.1 171.8 169.5 166.5 163.3 160.7 165.4 165.4 163.6 161.4 158.3 156.3 155.2 154.2 152.6 146.9 144.6 144.6 144.6 144.6 144.6 144.6 144.6 144.6 144.6 144.6 144.6 144.6 144.6 144.6 144.6 144.6 144.6 144.6 144.6 144.6 144.6 144.6 144.6 144.6 144.6 144.6 144.6 144.6 144.6 144.6 144.6 144.6 144.6 144.6 144.6 144.6 144.6 144.6 144.6 144.6 144.6 144.6 144.6 144.6 144.6 144.6 152.8 160.2 169.2 177.3 185 192 192.3 195.7 211.2 224.3 238.9 266 289.5 297.5 340.3 381.8 420 447.8 470.3 489.8 502.7 511.5 521.2 524.5 527.5 531.3 523.5 519.5 519.3 515.5 512.1 509.6 507.4 504.1 500.1 495.8 491.9 488.1 484.2 481.6 478.7 476.7 476.9 476.5 474.9 468.9 463.8 462.1 459.3 456.5 453.7 448.8 444.2 438.3 434.7 429.7 426.6 422.9 418.2 413.3 409.6 404.2 399.8 395.8 397.4 395.2 392.8 387.3 381.1 374.4 368.8 362.9 359.5 351.1 346.5 333.6 325.9 323.4 321.1 318 313.4 308.8 306 304.3 301.7 297.8 293.7 289 275.3 274.5 274.6 268.7 263.2 257.7 254.6 248.7 245.3 242.2 241.5 239 237.1 236.2 244.6 237.6
209 223.5 239.9 250.6 262 273.4 287.5 302 312.3 319.5 324.5 327.1 326.3 322.9 309.4 300.8 293.7 285.9 284.1 282.7 281.8 288.1 297.6 302.7 306.8 310.2 312.3 304.2 288.4 264.6 225.5 194.5 178.9 170.4 167.5 166.9 164.3 161.1 157.2 157.7 161.1 160.4 158.5 156.4 152.5 149.7 146.6 144.6 144.6 144.6 144.6 144.6 144.6 144.6 144.6 144.6 144.6 144.6 144.6 144.6 144.6 144.6 144.6 144.6 144.6 144.6 144.6 144.6 144.6 144.6 144.6 144.6 144.6 144.6 144.6 144.6 144.6 144.6 144.6 144.6 144.6 144.6 144.6 144.6 144.6 144.6 144.6 144.6 144.6 144.6 144.6 144.6 144.6 144.6 144.6 154.9 161.4 169.8 176.9 185 191.7 200.1 198.9 209.9 222.7 235.3 258.2 289.7 320.2 314.8 357.8 393.1 417.4 448.3 467.6 486.2 498.3 508.4 518.6 524.1 529.2 530.7 526.4 522.8 522.9 520.9 514.7 512 509.8 506.7 503 498.3 495.1 490.7 488.4 486.5 483.3 481.9 481 480 477.7 473.2 469.9 468.3 465.6 463.1 459.4 453.5 448.9 442.8 439 434.1 430 424.7 419.3 413.6 408.7 404.3 401 398 396.5 398.4 394.2 387.6 383.5 379.9 372.1 368.7 360.3 353.2 345.5 336.1 330.3 326.6 322.9 319.6 316.3 310.6 307.5 305.8 302.3 297.5 293.6 289.7 285.1 272.8 264.6 257 253.6 250.2 247.5 245.1 249.9 253.5 254.4 252.3 250.4 249.1 250.6 250.4
208.5 226.2 241.2 253.3 262.9 272.6 283.3 291.9 304.8 306.5 300.9 307.1 308.2 291.1 282.2 275.8 269.1 268.8 265.3 260.9 257.7 261.5 268 271.6 274.5 278.6 286.6 279 273.2 261.7 213.1 182.7 170.9 162.6 160.8 160.8 158.6 155 152.2 153.7 156.2 154.9 154.1 151.7 147.2 144.6 144.6 144.6 144.6 144.6 144.6 144.6 144.6 144.6 144.6 144.6 144.6 144.6 144.6 144.6 144.6 144.6 144.6 144.6 144.6 144.6 144.6 144.6 144.6 144.6 144.6 144.6 144.6 144.6 144.6 144.6 144.6 144.6 144.6 144.6 144.6 144.6 144.6 144.6 144.6 144.6 144.6 144.6 144.6 144.6 144.6 144.6 144.6 144.6 152.7 161.7 168.1 176 184.8 191.2 200 207.7 212 223.9 232.2 251.8 282.2 315.6 339.8 328.2 377.7 411.2 433 451.5 465.5 481.1 494.1 504.1 514.6 522.6 528.4 529.7 527.7 527.8 524.9 524.1 517.3 514.8 512.3 509.9 505.3 501.1 497.4 493.6 492.5 490.4 488.1 486.6 486.5 485.5 482.3 478.2 476.5 475.7 474.2 470.6 466.4 460 453.4 446.1 441.1 436.3 430.2 423.7 416.8 411.7 406.4 402.9 400 397.7 398.2 394.8 390.7 388.1 387.2 385.8 375.3 369.5 361.7 357.3 350.4 339.3 332.9 328.8 324.5 320.9 316.8 311.5 307.8 305 301.2 297.1 293 288.9 284.8 277 272.1 267.4 265.6 264.8 247.4 251.7 257 260.2 258.4 256.7 257 255.7 254.6 254.5
204.7 224.1 236.4 243 254 260.6 264.1 266.1 268 268.6 268.3 271.7 271.2 262.5 258 257 245 241.7 238.4 233.8 234.7 233.6 234.7 236.2 237.9 243 244.1 240.5 231 218.6 187.6 171.8 160.8 154.5 151.5 150.3 149.6 146.6 148.5 151 152.2 150.4 147.2 144.6 144.6 144.6 144.6 144.6 144.6 144.6 144.6 144.6 144.6 144.6 144.6 144.6 144.6 144.6 144.6 144.6 144.6 144.6 144.6 144.6 144.6 144.6 144.6 144.6 144.6 144.6 144.6 144.6 144.6 144.6 144.6 144.6 144.6 144.6 144.6 144.6 144.6 144.6 144.6 144.6 144.6 144.6 144.6 144.6 144.6 144.6 144.6 144.6 144.6 146.6 158.6 165.8 172.3 179.7 190 199.2 209 216.7 223.6 234.5 250.2 269.7 301.1 338.3 360.4 379.1 381.1 412.1 431.3 446.9 462.9 477.5 487.3 497.1 507.8 516.2 525.1 529.2 529.2 529.8 526.8 523.1 519.6 517 514.5 511 507.3 503.2 499.9 497.7 496.1 495.4 494.5 492.8 490.2 487.1 485.6 483.5 482.3 481.7 480.5 476 469.7 459.4 454.6 448.7 441.3 434.9 428.4 422.1 414.9 407.9 403.3 399.2 397.1 396.3 398.7 399.5 394.1 392.9 389.6 385.8 377.2 370.9 364.6 358.2 350.2 341.4 337.7 332.9 326.8 321.7 316.8 311.1 307 303.2 299.7 296 291.8 287.3 282.6 276.1 272.5 269 268.5 266.1 252.3 252 261.4 262.5 260.2 261 259.7 258.7 258.1 258.7
190.3 207.5 215.6 224.9 234.7 236 237.4 238.4 236.2 237.6 239.9 240.6 239.9 235.5 232.5 224.7 218.3 214.8 210.6 210.4 210.9 209 209.7 208.9 209.2 208.4 207.7 200.5 189.8 180.6 166.7 156.3 150.9 148.3 144.6 144.6 144.6 144.6 144.6 144.6 144.6 144.6 144.6 144.6 144.6 144.6 144.6 144.6 144.6 144.6 144.6 144.6 144.6 144.6 144.6 144.6 144.6 144.6 144.6 144.6 144.6 144.6 144.6 144.6 144.6 144.6 144.6 144.6 144.6 144.6 144.6 144.6 149.5 144.6 144.6 144.6 144.6 144.6 144.6 144.6 144.6 144.6 144.6 144.6 144.6 144.6 144.6 144.6 144.6 144.6 144.6 144.6 144.6 151.1 161.7 170.6 178.3 188.1 194.7 203.5 211.2 226.6 236 249.9 268.7 290.8 319.8 354.7 389.7 406.1 407.2 395.4 413.3 438.3 457.4 471.5 481.7 491.2 500.9 510.1 519.9 526.8 528.8 529.5 526.1 523.9 522 518.8 515.2 511.6 508.8 507 504.5 502.6 501.3 500.4 499.2 497.4 493 489.5 488.6 488 486.5 484.4 480.6 474.3 466.4 460.5 453.5 449.3 440 433.1 426.5 420.2 413.6 406.7 401.7 397.3 394.3 393.9 399.3 398.6 400.8 399.3 392.2 386.2 382.5 374 369.1 360.9 351.7 347.3 342.1 336.6 329.8 323.1 316.4 310.4 305.7 301.9 298.2 294.4 289.7 285.1 280.8 274.9 271.1 267.9 268.1 264.2 253.4 264.5 264.8 264.8 262.5 264.6 263.9 265.2 265.2 264.1
161 184.4 198.7 206 211.1 210.8 211.5 210.5 209.8 208.6 209.2 209.6 210.2 209.2 205.5 198.6 190.7 187.9 190.6 191.5 187.6 186.2 185.5 186 184.3 182 177.2 171.8 166 156.6 148.1 144.6 144.6 144.6 144.6 144.6 144.6 144.6 144.6 144.6 144.6 144.6 144.6 144.6 144.6 144.6 144.6 144.6 144.6 144.6 144.6 144.6 144.6 144.6 144.6 144.6 144.6 144.6 144.6 144.6 144.6 144.6 144.6 144.6 144.6 144.6 150 149.7 150.1 155.4 165.5 167.7 164.7 161.2 147.2 144.6 144.6 144.6 144.6 144.6 144.6 144.6 144.6 144.6 144.6 144.6 144.6 144.6 144.6 144.6 144.6 144.6 144.6 154 167 176.5 185.9 197.1 204.9 211.6 222.6 239.5 251.4 269.1 288.8 311.7 337.7 372 407.5 428.7 430.3 427.5 412.8 429.2 451.7 465.7 478.4 488.9 497.3 507.2 516 521.4 525.7 527.4 527 527 525.7 521.9 517.6 513.8 511.6 509.8 508.4 507.4 506.3 503.8 500.9 499 496.9 494.9 492.1 491.4 488.2 483.2 477.9 473.5 468.1 460.9 451.6 445.4 437.2 430.7 424.5 417.6 412.2 406.1 400.7 395.5 388.7 390.1 395.3 399.6 403.6 404.9 396.5 385.4 386 376.2 374.2 365.8 357.5 351.7 345.9 339.7 333 323.8 316.8 310.8 305.5 300.8 297.6 293.1 288.2 282.4 277.4 273.7 268.6 264.2 258 256.3 263.4 267.7 267.1 266.9 265.9 267 268.8 270.9 271.6 267.4
170.9 161.2 183 187.5 190.3 194.3 197 197.7 196.7 196.3 194.9 192.1 189.3 185.8 183.1 182.1 179.9 176.7 176.3 174.9 174.4 172.5 169.7 169.9 166.7 163.8 159.5 156.5 150 144.6 144.6 144.6 144.6 144.6 144.6 144.6 144.6 144.6 144.6 144.6 144.6 144.6 144.6 144.6 144.6 144.6 144.6 144.6 144.6 144.6 144.6 144.6 144.6 144.6 144.6 144.6 144.6 144.6 144.6 144.6 144.6 144.6 144.6 144.6 144.6 144.6 154.3 158.1 163.8 179 192.4 186.1 191.5 181.7 162.3 144.6 144.6 144.6 144.6 144.6 144.6 144.6 144.6 144.6 144.6 144.6 144.6 144.6 144.6 144.6 144.6 144.6 146.9 160.1 171.1 185.3 197.2 209 219 228.1 243.8 264.8 281.5 296.6 311.5 335.4 361.8 389.3 427.7 444.4 446.6 449.5 440 430.7 454.2 471.5 482.4 490.6 498.7 507.4 514.7 520.5 524.8 527.1 527.6 527.2 526.6 524.5 520.3 517.4 515.2 513.3 511.8 508.9 506.4 503.6 501.4 498.7 497 495.1 494.1 491.7 486.8 480 476.3 473.1 466.5 460.9 452.6 444.6 436.5 429.6 422.6 418.2 413.3 407.5 399.9 395.9 386.5 384 387.9 393.7 399.6 402.4 394.1 387.1 383.6 377 374.2 368.1 362.2 357.1 348.3 341.9 331.3 323.5 316.8 311.6 305.1 299.7 295.6 291.1 285.9 278.5 272.5 270.9 266.2 260.4 263.3 266.4 268.7 270.1 268.4 268.8 268.3 268.1 270.9 273.8 273.2 267.8
167.8 165.5 166.8 182.2 184.8 187.9 190.9 190.6 189 187.3 185.1 181.1 178.5 176.8 175 173.4 171.3 167.9 164.9 162.6 160.2 159.5 157.9 156.8 155.2 152.7 149 144.6 144.6 144.6 144.6 144.6 144.6 144.6 144.6 144.6 144.6 144.6 144.6 144.6 144.6 144.6 144.6 144.6 144.6 144.6 144.6 144.6 144.6 144.6 144.6 144.6 144.6 144.6 144.6 144.6 144.6 144.6 144.6 144.6 144.6 144.6 144.6 144.6 144.6 147.6 160.5 172 174.4 192.1 210.5 212 204.9 189.5 168.7 152.2 147.1 144.6 144.6 144.6 144.6 144.6 144.6 144.6 144.6 144.6 144.6 144.6 144.6 144.6 144.6 149.7 159.5 168 182.3 196.2 213.8 226 232.5 246.5 271.4 298 309 320.7 338.3 359.5 389.2 417.8 446.9 460.3 465.5 466.5 463.5 435.5 463.3 477.2 486.9 494.3 502.2 511.3 516.7 521.5 525.8 527.5 527.8 527 526.5 525.3 523.4 520.4 518.4 515.4 512.4 509.4 506.2 502.9 499.8 497.1 494.7 493.5 492.6 488.6 484.1 479.1 476.2 471.8 467.4 463 457.7 449.5 440.8 430.9 425.6 421.4 413.4 406.5 396.9 389.8 384.7 378.2 381.7 385.2 391.4 397.7 393.9 389.2 385.2 380.4 378 374.2 369 359.8 349.7 343.2 335.1 324.1 317.2 310.4 303.4 297.8 292.9 287.4 281.3 273.1 268.6 267.6 262.3 262.1 264.9 268.7 271.1 272.3 270.6 269.7 270 268.3 271.7 274.2 270.5 266.5
164.3 158.7 169.1 177.2 179.2 181.9 184.8 183.7 182 178.3 173.9 171.6 169.7 168 166.9 165.5 161.8 155.8 152.6 148.7 145.9 146.2 145.1 144.6 144.6 144.6 144.6 144.6 144.6 144.6 144.6 144.6 144.6 144.6 144.6 144.6 144.6 144.6 144.6 144.6 144.6 144.6 144.6 144.6 144.6 144.6 144.6 144.6 144.6 144.6 144.6 144.6 144.6 144.6 144.6 144.6 144.6 144.6 144.6 144.6 144.6 147.6 149.7 146.3 155.5 168.8 182.5 192.6 199.2 216.6 228.5 227.6 216.5 196.8 178.8 165.8 156.7 145 144.6 144.6 144.6 144.6 144.6 144.6 144.6 144.6 144.6 144.6 144.6 144.6 150.9 157.2 168.4 179.4 197.3 212.3 231.1 240.7 248.1 267.2 295 318.4 331.2 343.3 362.6 387.2 421.4 446.5 463 477 484.7 480.2 474 463.9 469.7 481.9 491 499.4 505.1 513.6 519.2 523.4 527.6 529.6 530.1 528.8 527.8 526.1 524.9 522.3 519.6 515.9 511.8 508.2 504.7 500.8 497.3 494.4 491.9 490.5 488.4 485.9 483.4 481.1 480 473.5 469.3 462.6 453.5 445.6 439.6 430.8 424 417.4 410.6 403.7 391.9 387.3 382.9 373.3 373.1 375.8 377.8 381.6 386 387.7 386.2 380.2 379.7 378.4 368.9 358.5 348.5 341.9 332.2 325.1 315.2 308.2 303 296.6 291.2 283.9 274.8 269.2 265.7 264.2 263.2 264.7 266.2 270.8 273.1 274.3 272.8 270.2 270.4 269.1 271.9 273.3 269.4 266.1
160.5 161.8 165.3 169.6 174.3 176 177.7 175.9 174.1 169.2 166.1 163.1 160.2 159.1 158.5 157 153 144.6 144.6 144.6 144.6 144.6 144.6 144.6 144.6 144.6 144.6 144.6 144.6 144.6 144.6 144.6 144.6 144.6 144.6 144.6 144.6 144.6 144.6 144.6 144.6 144.6 144.6 144.6 144.6 144.6 144.6 144.6 144.6 144.6 144.6 144.6 144.6 144.6 144.6 144.6 144.6 144.6 144.6 144.6 144.6 151.4 155.8 166.8 180.1 192.8 205.7 218.6 234 240.5 253.5 245.6 227.5 213.9 194.9 177.4 163.5 147.7 144.6 144.6 144.6 144.6 144.6 144.6 144.6 144.6 144.6 144.6 144.6 148.8 154.8 164.2 174.7 192.5 211.7 230.5 249.7 259.1 266.2 286.6 314.2 338.2 358.3 371.9 389.1 417.2 444.2 465.5 487 505 499.6 489.7 480.7 468 476 486.3 495.2 501.5 511.5 516.9 523.2 527 530.6 532.1 532.2 531.6 531.6 529.6 526 523.2 518.8 513.5 509.8 506.1 503.4 500.2 496.5 493.7 491.1 489 487.6 485.1 482 480 477.9 474.4 471 465.5 453.1 444.5 436.9 430.7 420.1 409.8 403.8 394.9 387.2 380.8 374.1 364.7 363.1 367.7 371.5 373.7 379.4 378.9 379.5 377.4 373.8 371.6 366.2 356.8 346.8 336.5 327.6 319.1 313.8 306.6 301.7 294.9 289.9 282 274.2 267.2 266.1 264.8 264.5 267.7 267.9 271.9 274.9 276.2 274.2 271.4 271 269.3 270.8 271 269.1 266.2
